ncols        559
nrows        32
xllcorner    -10.7
yllcorner    52
cellsize     0.020000000000
NODATA_value -9999
-9999 -9999 -9999 -9999 -9999 -9999 -9999 -9999 -9999 -9999 -9999 -9999 -9999 -9999 -9999 -9999 -9999 -9999 -9999 -9999 -9999 -9999 -9999 -9999 -9999 -9999 -9999 -9999 -9999 -9999 -9999 -9999 -9999 -9999 -9999 -9999 -9999 -9999 -9999 -9999 -9999 -9999 -9999 -9999 -9999 15 69 67 41 1 1 1 1 -9999 -9999 -9999 -9999 -9999 -9999 -9999 -9999 1 1 1 2 2 1 -9999 -9999 16 44 1 -9999 -9999 -9999 -9999 -9999 -9999 -9999 1 -9999 1 1 1 -9999 2 5 7 9 11 13 14 13 11 9 7 11 13 15 9 10 18 29 42 60 71 90 134 125 63 56 59 58 59 57 54 56 64 65 70 76 123 171 269 305 305 304 294 254 304 307 290 241 154 137 127 99 82 76 76 83 102 116 130 134 135 136 138 140 142 145 148 152 172 197 209 195 179 162 155 152 155 152 149 155 152 135 117 85 76 73 74 78 76 62 57 67 74 76 67 60 47 38 35 37 31 72 76 70 76 76 119 162 214 306 573 573 591 345 226 153 116 76 60 59 68 76 76 76 88 105 85 71 70 73 78 84 66 31 10 10 6 1 -9999 -9999 -9999 -9999 -9999 -9999 -9999 -9999 -9999 -9999 -9999 -9999 -9999 -9999 -9999 -9999 -9999 -9999 -9999 -9999 -9999 -9999 -9999 -9999 -9999 -9999 -9999 -9999 -9999 -9999 -9999 -9999 -9999 -9999 -9999 -9999 -9999 -9999 -9999 -9999 -9999 -9999 -9999 -9999 -9999 -9999 -9999 -9999 -9999 -9999 -9999 -9999 -9999 -9999 -9999 -9999 -9999 -9999 -9999 -9999 -9999 -9999 -9999 -9999 -9999 -9999 -9999 -9999 -9999 -9999 -9999 -9999 -9999 -9999 -9999 -9999 -9999 -9999 -9999 -9999 -9999 -9999 -9999 -9999 -9999 -9999 -9999 -9999 -9999 -9999 -9999 -9999 -9999 -9999 -9999 -9999 -9999 -9999 -9999 -9999 -9999 -9999 -9999 -9999 -9999 50 91 67 70 120 101 164 271 325 324 329 339 246 135 133 161 96 62 66 100 93 140 169 169 157 167 242 314 308 305 306 306 313 317 311 305 301 282 261 191 192 209 185 185 180 175 168 134 91 78 143 217 246 175 136 136 156 164 170 156 180 206 236 252 222 160 133 109 105 115 124 127 119 105 121 93 80 79 102 118 137 141 79 76 78 80 80 76 75 76 76 76 99 133 141 134 129 126 126 140 149 152 152 154 154 152 152 152 149 152 153 152 144 135 133 139 152 139 113 76 76 69 74 76 75 76 76 72 73 77 76 78 81 85 92 100 108 113 118 119 110 94 87 82 77 77 77 76 72 75 77 76 81 90 111 128 152 152 152 152 156 173 186 175 152 155 152 152 152 128 108 79 76 76 74 76 63 57 51 64 80 82 81 74 55 46 39 36 35 33 32 31 30 28 27 26 26 26 25 24 23 21 20 18 17 16 14 11 6 4 3 3 3 3 4 5 6 6 6 5 5 6 6 6 8 10 14 16 18 19 20
-9999 -9999 -9999 -9999 -9999 -9999 -9999 -9999 -9999 -9999 -9999 -9999 -9999 -9999 -9999 -9999 -9999 -9999 -9999 -9999 -9999 -9999 -9999 -9999 -9999 -9999 -9999 -9999 -9999 -9999 -9999 -9999 -9999 -9999 -9999 -9999 -9999 -9999 -9999 -9999 -9999 -9999 -9999 -9999 2 14 37 27 10 -9999 -9999 -9999 -9999 -9999 -9999 -9999 -9999 -9999 -9999 -9999 -9999 -9999 -9999 -9999 -9999 -9999 -9999 -9999 2 42 116 -9999 -9999 -9999 -9999 -9999 7 59 104 60 14 1 1 3 5 6 9 12 15 19 21 21 19 16 11 9 18 28 36 36 24 25 36 47 63 72 72 88 84 76 65 79 69 64 59 57 60 63 64 68 76 87 112 128 188 240 297 266 206 259 283 253 178 132 113 108 90 79 75 76 85 114 132 147 147 145 144 144 145 147 149 151 154 189 227 249 208 180 162 152 138 151 130 129 137 134 117 104 84 77 75 74 74 76 67 54 65 71 69 60 52 47 49 56 66 78 29 43 51 56 65 76 98 153 284 467 390 288 280 188 145 129 100 88 74 60 67 71 71 76 71 66 67 76 75 79 112 76 39 13 13 8 3 1 -9999 -9999 -9999 -9999 -9999 -9999 -9999 -9999 -9999 -9999 -9999 -9999 -9999 -9999 -9999 -9999 -9999 -9999 -9999 -9999 -9999 -9999 -9999 -9999 -9999 -9999 -9999 -9999 -9999 -9999 -9999 -9999 -9999 -9999 -9999 -9999 -9999 -9999 -9999 -9999 -9999 -9999 -9999 -9999 -9999 -9999 -9999 -9999 -9999 -9999 -9999 -9999 -9999 -9999 -9999 -9999 -9999 -9999 -9999 -9999 -9999 -9999 -9999 -9999 -9999 -9999 -9999 -9999 -9999 -9999 -9999 -9999 -9999 -9999 -9999 -9999 -9999 -9999 -9999 -9999 -9999 -9999 -9999 -9999 -9999 -9999 -9999 -9999 -9999 -9999 -9999 -9999 -9999 -9999 -9999 -9999 -9999 -9999 -9999 -9999 -9999 -9999 -9999 -9999 -9999 -9999 60 71 78 216 320 326 304 225 148 166 158 71 46 50 74 108 151 152 151 147 149 142 176 186 260 305 305 308 306 306 321 323 307 296 282 246 224 190 203 244 277 278 160 152 142 115 75 106 140 153 146 136 157 205 272 268 250 262 283 277 302 305 280 218 172 137 120 135 147 152 152 148 152 127 97 127 158 159 167 160 111 87 76 76 76 76 75 76 76 76 95 150 146 135 131 135 139 147 152 152 150 150 149 149 152 145 148 152 152 152 150 148 150 152 155 152 123 82 76 71 75 76 77 79 79 72 73 74 75 76 79 82 90 98 105 107 109 108 101 89 84 80 78 77 76 74 74 76 76 78 84 92 109 123 148 153 152 152 153 153 159 152 131 122 118 142 153 143 122 87 78 76 76 76 82 74 50 76 83 79 74 67 52 44 38 36 34 33 33 31 31 29 28 27 27 26 25 24 23 22 20 18 17 16 14 13 9 6 5 4 4 4 5 6 7 7 8 8 7 8 8 7 8 11 14 15 17 18 19
-9999 -9999 -9999 -9999 -9999 -9999 -9999 -9999 -9999 -9999 -9999 -9999 -9999 -9999 -9999 -9999 -9999 -9999 -9999 -9999 -9999 -9999 -9999 -9999 -9999 -9999 -9999 -9999 -9999 -9999 -9999 -9999 -9999 -9999 -9999 -9999 -9999 -9999 -9999 -9999 -9999 1 1 1 1 3 23 1 1 1 -9999 -9999 -9999 -9999 -9999 -9999 -9999 -9999 -9999 -9999 -9999 -9999 -9999 -9999 -9999 -9999 -9999 -9999 -9999 -9999 -9999 -9999 20 36 33 46 77 119 144 89 49 14 11 11 12 12 13 18 22 28 30 28 23 18 13 11 25 40 57 72 64 36 42 50 64 72 74 76 91 138 100 114 103 76 67 60 61 62 64 68 70 71 76 81 104 135 172 175 153 185 190 188 152 109 95 94 84 76 74 76 90 125 143 155 154 151 149 149 149 150 151 152 157 195 239 274 191 165 156 146 126 99 82 94 99 100 94 89 82 78 75 72 70 68 61 52 65 72 68 61 61 84 90 96 130 125 75 42 36 56 76 83 104 145 211 312 303 275 169 152 150 152 152 116 75 57 62 65 65 65 65 71 73 76 75 73 79 76 63 21 14 10 5 1 -9999 -9999 -9999 -9999 -9999 -9999 -9999 -9999 -9999 -9999 -9999 -9999 -9999 -9999 -9999 -9999 -9999 -9999 -9999 -9999 -9999 -9999 -9999 -9999 -9999 -9999 -9999 -9999 -9999 -9999 -9999 -9999 -9999 -9999 -9999 -9999 -9999 -9999 -9999 -9999 -9999 -9999 -9999 -9999 -9999 -9999 -9999 -9999 -9999 -9999 -9999 -9999 -9999 -9999 -9999 -9999 -9999 -9999 -9999 -9999 -9999 -9999 -9999 -9999 -9999 -9999 -9999 -9999 -9999 -9999 -9999 -9999 -9999 -9999 -9999 -9999 -9999 -9999 -9999 -9999 -9999 -9999 -9999 -9999 -9999 -9999 -9999 -9999 -9999 -9999 -9999 -9999 -9999 -9999 -9999 -9999 -9999 -9999 -9999 -9999 -9999 -9999 -9999 -9999 -9999 11 62 86 139 267 322 315 232 100 52 61 31 55 81 78 78 135 152 152 177 228 235 197 178 296 307 300 298 305 301 305 330 334 316 305 305 260 221 182 196 242 297 285 168 152 129 123 116 120 126 130 138 153 241 296 305 306 339 460 361 312 310 319 306 278 228 153 137 152 160 159 152 153 135 133 149 161 162 157 159 152 125 99 76 76 76 75 75 76 76 76 78 121 132 124 126 143 150 152 153 151 149 146 143 143 141 141 147 152 153 152 152 152 154 152 149 140 118 84 76 72 76 77 81 90 101 97 79 74 75 76 78 82 89 96 102 103 102 97 89 80 78 76 77 78 74 72 76 76 76 78 82 90 102 119 148 152 152 154 153 152 152 149 119 101 86 101 126 153 131 87 79 76 71 55 53 52 57 78 79 77 73 63 47 39 36 35 33 33 32 31 30 29 28 28 27 26 25 24 23 21 20 18 17 16 14 13 10 8 8 5 5 6 6 6 8 9 9 9 9 9 9 8 9 11 13 15 16 17 18
-9999 -9999 -9999 -9999 -9999 -9999 -9999 -9999 -9999 -9999 -9999 -9999 -9999 -9999 -9999 -9999 -9999 -9999 -9999 -9999 -9999 -9999 -9999 -9999 -9999 -9999 -9999 -9999 -9999 -9999 -9999 -9999 -9999 -9999 -9999 -9999 -9999 -9999 1 1 1 -9999 -9999 -9999 -9999 -9999 -9999 -9999 -9999 -9999 -9999 10 35 75 92 44 22 19 18 5 1 11 14 15 24 33 39 59 70 66 73 63 77 98 84 71 107 146 118 65 58 43 35 30 24 20 20 25 32 40 41 33 25 22 19 18 30 47 75 121 117 65 47 48 60 67 79 82 90 105 78 76 65 67 102 131 134 81 75 69 72 72 73 74 77 87 106 119 131 145 149 136 100 84 86 86 81 76 77 87 109 140 150 154 153 152 152 152 152 152 152 152 155 177 191 183 147 152 142 127 108 83 76 74 73 72 72 76 76 76 73 65 61 55 52 54 73 77 73 70 109 182 187 163 157 138 89 41 38 61 74 76 88 188 421 370 178 157 128 134 125 124 131 103 76 66 57 58 63 70 77 76 76 76 76 75 77 78 57 26 17 12 7 1 -9999 -9999 -9999 -9999 -9999 -9999 -9999 -9999 -9999 -9999 -9999 -9999 -9999 -9999 -9999 -9999 -9999 -9999 -9999 -9999 -9999 -9999 -9999 -9999 -9999 -9999 -9999 -9999 -9999 -9999 -9999 -9999 -9999 -9999 -9999 -9999 -9999 -9999 -9999 -9999 -9999 -9999 -9999 -9999 -9999 -9999 -9999 -9999 -9999 -9999 -9999 -9999 -9999 -9999 -9999 -9999 -9999 -9999 -9999 -9999 -9999 -9999 -9999 -9999 -9999 -9999 -9999 -9999 -9999 -9999 -9999 -9999 -9999 -9999 -9999 -9999 -9999 -9999 -9999 -9999 -9999 -9999 -9999 -9999 -9999 -9999 -9999 -9999 -9999 -9999 -9999 -9999 -9999 -9999 -9999 -9999 -9999 -9999 -9999 -9999 -9999 -9999 -9999 -9999 -9999 -9999 43 79 118 150 129 105 44 10 53 109 152 180 204 195 184 147 124 193 276 334 319 264 292 408 466 382 317 267 254 244 296 321 326 317 280 218 197 177 166 160 203 192 144 124 146 147 154 153 146 144 140 158 293 321 305 297 304 387 319 304 307 314 314 310 290 248 271 222 192 173 158 153 155 159 164 158 151 150 151 146 121 101 81 75 74 75 75 75 76 76 77 85 95 97 107 144 156 153 153 152 150 146 141 138 135 135 142 152 154 155 152 146 139 132 120 111 99 81 75 72 74 76 87 105 142 156 151 117 78 76 77 81 88 92 98 99 97 92 87 80 77 76 75 74 75 76 76 77 75 76 76 83 98 114 131 137 139 140 135 136 148 136 102 90 83 79 74 103 91 76 63 65 82 88 79 59 72 76 75 73 66 57 42 35 34 33 32 32 31 31 30 29 29 28 27 26 25 24 23 21 20 19 17 16 14 13 12 12 10 8 8 8 8 8 9 10 11 12 12 12 11 10 10 11 12 13 15 16 17
-9999 -9999 -9999 -9999 -9999 -9999 -9999 -9999 -9999 -9999 -9999 -9999 -9999 -9999 -9999 -9999 -9999 -9999 -9999 -9999 -9999 -9999 -9999 -9999 -9999 -9999 -9999 -9999 -9999 -9999 -9999 -9999 -9999 -9999 -9999 -9999 -9999 -9999 -9999 -9999 -9999 -9999 -9999 -9999 -9999 -9999 -9999 -9999 -9999 -9999 -9999 44 76 116 136 102 74 62 53 30 23 30 34 37 48 62 86 113 142 135 130 117 111 119 111 102 128 147 131 102 78 64 55 45 32 21 24 29 37 46 46 34 28 27 23 22 24 37 65 135 131 65 49 48 55 60 62 65 67 76 75 74 62 62 109 147 152 133 100 76 80 80 76 74 75 78 88 93 108 125 128 103 73 77 82 82 79 71 72 89 123 149 153 152 152 152 151 144 152 155 153 151 152 162 160 155 152 152 127 112 98 81 76 74 72 71 69 68 65 64 61 57 55 54 48 56 81 76 73 76 115 173 182 160 149 117 37 30 66 76 76 76 102 322 473 421 160 145 106 97 78 86 84 79 76 75 62 56 64 71 75 76 76 76 76 76 76 70 37 25 21 13 6 1 -9999 -9999 -9999 -9999 -9999 -9999 -9999 -9999 -9999 -9999 -9999 -9999 -9999 -9999 -9999 -9999 -9999 -9999 -9999 -9999 -9999 -9999 -9999 -9999 -9999 -9999 -9999 -9999 -9999 -9999 -9999 -9999 -9999 -9999 -9999 -9999 -9999 -9999 -9999 -9999 -9999 -9999 -9999 -9999 -9999 -9999 -9999 -9999 -9999 -9999 -9999 -9999 -9999 -9999 -9999 -9999 -9999 -9999 -9999 -9999 -9999 -9999 -9999 -9999 -9999 -9999 -9999 -9999 -9999 -9999 -9999 -9999 -9999 -9999 -9999 -9999 -9999 -9999 -9999 -9999 -9999 -9999 -9999 -9999 -9999 -9999 -9999 -9999 -9999 -9999 -9999 -9999 -9999 -9999 -9999 -9999 -9999 -9999 -9999 -9999 -9999 -9999 -9999 -9999 -9999 -9999 -9999 36 38 -9999 -9999 -9999 1 80 113 184 289 293 280 287 248 243 186 331 423 445 385 298 318 421 460 407 334 298 276 234 216 239 228 231 201 164 174 172 163 155 154 147 138 151 161 195 223 182 154 143 143 153 217 273 288 268 272 316 264 277 305 313 307 305 304 305 305 238 196 174 159 155 152 155 163 163 156 152 151 150 111 94 79 74 76 76 75 77 76 76 76 76 76 82 86 117 128 152 153 153 151 147 141 138 140 134 134 151 146 145 142 135 124 112 104 97 91 81 77 74 75 76 89 108 142 152 155 151 109 76 76 80 86 90 95 96 96 92 87 81 78 76 76 78 79 78 76 86 92 88 92 98 109 119 123 122 120 112 106 95 80 78 80 78 81 78 74 70 67 61 74 84 88 87 73 65 76 76 73 64 58 51 41 35 35 34 32 32 32 32 31 31 30 30 29 28 26 25 24 23 22 20 18 17 15 14 13 13 12 10 10 9 10 9 10 11 13 13 13 13 13 12 11 11 12 13 15 17 18
-9999 -9999 -9999 -9999 -9999 -9999 -9999 -9999 -9999 -9999 -9999 -9999 -9999 -9999 -9999 -9999 -9999 -9999 -9999 -9999 -9999 -9999 -9999 -9999 -9999 -9999 -9999 -9999 -9999 -9999 -9999 -9999 -9999 -9999 -9999 -9999 -9999 -9999 -9999 -9999 -9999 -9999 -9999 -9999 -9999 -9999 -9999 -9999 -9999 -9999 -9999 75 77 124 148 158 102 76 71 60 57 61 64 63 66 71 84 110 136 152 154 156 152 152 152 155 152 152 156 162 138 86 76 61 42 32 26 31 42 55 54 41 37 32 28 30 35 34 32 58 51 41 42 47 56 64 73 80 84 79 73 74 62 54 85 117 147 145 115 99 116 115 101 91 93 102 106 103 100 103 100 82 75 73 72 69 70 72 81 103 137 152 152 152 152 152 147 135 123 139 145 153 152 114 97 94 109 101 94 88 87 90 90 81 76 76 76 72 71 68 66 76 76 77 73 53 44 42 71 71 74 110 147 152 188 170 188 58 75 76 82 116 187 300 278 229 145 145 141 132 93 74 72 68 68 66 54 56 66 71 75 76 76 74 76 77 75 49 39 31 22 7 1 -9999 -9999 -9999 -9999 -9999 -9999 -9999 -9999 -9999 -9999 -9999 -9999 -9999 -9999 -9999 -9999 -9999 -9999 -9999 -9999 -9999 -9999 -9999 -9999 -9999 -9999 -9999 -9999 -9999 -9999 -9999 -9999 -9999 -9999 -9999 -9999 -9999 -9999 -9999 -9999 -9999 -9999 -9999 -9999 -9999 -9999 -9999 -9999 -9999 -9999 -9999 -9999 -9999 -9999 -9999 -9999 -9999 -9999 -9999 -9999 -9999 -9999 -9999 -9999 -9999 -9999 -9999 -9999 -9999 -9999 -9999 -9999 -9999 -9999 -9999 -9999 -9999 -9999 -9999 -9999 -9999 -9999 -9999 -9999 -9999 -9999 -9999 -9999 -9999 -9999 -9999 -9999 -9999 -9999 -9999 -9999 -9999 -9999 -9999 -9999 -9999 -9999 -9999 -9999 -9999 -9999 -9999 -9999 -9999 1 1 4 31 80 271 277 297 305 329 423 452 322 439 441 491 486 457 385 320 318 375 347 309 315 298 274 204 154 149 143 141 139 138 152 158 149 132 147 152 152 180 226 292 306 244 208 174 169 164 151 152 154 193 206 212 217 255 305 318 305 301 303 261 221 169 163 160 156 152 152 166 194 197 179 155 156 164 150 107 80 76 75 76 77 90 104 96 77 76 75 76 75 83 114 149 154 154 154 151 149 151 154 152 152 134 122 118 119 117 109 103 93 87 84 79 76 75 78 78 93 106 135 150 153 151 131 97 85 80 84 87 92 94 94 92 88 82 81 80 82 85 91 94 97 108 118 127 132 136 139 141 127 112 104 89 79 76 74 76 71 70 76 73 67 65 76 81 87 88 84 78 74 78 81 76 70 56 48 41 38 37 36 35 34 34 34 34 34 33 33 32 31 30 28 27 26 24 23 21 19 17 16 16 15 15 13 12 12 12 12 11 11 12 14 15 15 16 16 15 13 13 13 14 15 17 19
-9999 -9999 -9999 -9999 -9999 -9999 -9999 -9999 -9999 -9999 -9999 -9999 -9999 -9999 -9999 -9999 -9999 -9999 -9999 -9999 -9999 -9999 -9999 -9999 -9999 -9999 -9999 -9999 -9999 -9999 -9999 -9999 -9999 -9999 -9999 -9999 -9999 -9999 -9999 -9999 -9999 -9999 -9999 -9999 -9999 -9999 -9999 -9999 -9999 -9999 -9999 54 59 60 68 85 76 73 71 67 67 69 69 69 70 71 76 88 103 135 151 152 153 153 157 157 153 154 159 162 151 77 69 60 45 37 28 33 50 64 62 56 51 43 40 44 54 52 45 36 45 69 67 67 74 75 76 81 90 94 76 75 68 62 78 100 116 113 101 112 141 141 121 108 115 126 129 121 112 104 97 82 77 78 76 69 76 78 89 109 132 150 152 152 153 150 131 105 90 106 124 153 141 100 111 150 134 92 76 77 85 105 113 115 111 99 83 74 76 71 69 77 77 76 68 66 70 76 39 38 36 61 102 165 287 314 269 22 52 70 108 188 269 283 204 163 132 122 126 98 76 76 73 64 60 57 54 61 69 74 76 76 77 70 76 76 61 56 45 30 16 1 -9999 -9999 -9999 -9999 -9999 -9999 -9999 -9999 -9999 -9999 -9999 -9999 -9999 -9999 -9999 -9999 -9999 -9999 -9999 -9999 -9999 -9999 -9999 -9999 -9999 -9999 -9999 -9999 -9999 -9999 -9999 -9999 -9999 -9999 -9999 -9999 -9999 -9999 -9999 -9999 -9999 -9999 -9999 -9999 -9999 -9999 -9999 -9999 -9999 -9999 -9999 -9999 -9999 -9999 -9999 -9999 -9999 -9999 -9999 -9999 -9999 -9999 -9999 -9999 -9999 -9999 -9999 -9999 -9999 -9999 -9999 -9999 -9999 -9999 -9999 -9999 -9999 -9999 -9999 -9999 -9999 -9999 -9999 -9999 -9999 -9999 -9999 -9999 -9999 -9999 -9999 -9999 -9999 -9999 -9999 -9999 -9999 -9999 -9999 -9999 -9999 -9999 -9999 -9999 -9999 -9999 -9999 -9999 -9999 -9999 1 1 35 77 145 279 314 307 308 336 418 451 445 470 511 513 486 458 381 310 305 333 311 299 265 209 172 150 148 152 144 144 173 177 137 135 150 186 220 207 154 231 275 286 301 304 301 295 292 290 250 200 175 177 175 165 191 245 316 314 274 250 229 179 152 152 154 154 152 150 155 211 260 240 208 158 154 163 162 139 91 76 74 76 76 100 142 142 106 88 76 75 75 76 99 135 146 152 154 154 154 152 152 152 153 147 135 121 115 111 105 100 91 88 84 80 78 76 76 89 110 110 131 145 152 151 135 105 91 84 84 87 91 93 94 93 91 87 86 86 88 91 98 104 109 121 131 143 148 152 151 152 137 121 107 88 78 75 75 77 79 79 76 76 76 83 85 84 85 84 79 76 77 79 80 76 67 51 45 40 38 38 37 37 36 35 35 35 35 34 33 33 31 30 29 28 27 24 22 20 19 17 17 17 16 15 14 14 14 14 14 13 13 13 15 16 17 17 18 17 16 15 15 14 15 17 18
-9999 -9999 -9999 -9999 -9999 -9999 -9999 -9999 -9999 -9999 -9999 -9999 -9999 -9999 -9999 -9999 -9999 -9999 -9999 -9999 -9999 -9999 -9999 -9999 -9999 -9999 -9999 -9999 -9999 -9999 -9999 -9999 -9999 -9999 -9999 -9999 -9999 -9999 -9999 -9999 -9999 -9999 -9999 -9999 -9999 -9999 -9999 -9999 -9999 -9999 -9999 -9999 53 47 44 50 61 67 68 68 68 69 70 70 70 71 74 76 76 100 111 141 150 152 155 157 149 152 157 143 120 78 70 58 43 38 59 63 68 76 76 77 74 85 86 76 76 71 60 43 59 115 123 118 100 86 75 78 94 121 120 76 76 76 81 89 88 90 97 123 150 153 134 122 137 151 153 142 130 115 102 85 80 79 70 71 77 80 92 108 126 144 150 152 153 147 121 97 75 81 95 151 128 76 97 138 111 88 72 76 90 126 137 147 151 119 98 86 76 67 69 76 73 67 60 67 97 107 83 75 95 33 86 176 236 277 216 81 40 76 124 284 303 227 155 136 112 96 76 78 75 76 74 64 58 53 56 68 73 76 76 76 75 75 77 77 71 69 49 24 6 -9999 -9999 -9999 -9999 -9999 -9999 -9999 -9999 -9999 -9999 -9999 -9999 -9999 -9999 -9999 -9999 -9999 -9999 -9999 -9999 -9999 -9999 -9999 -9999 -9999 -9999 -9999 -9999 -9999 -9999 -9999 -9999 -9999 -9999 -9999 -9999 -9999 -9999 -9999 -9999 -9999 -9999 -9999 -9999 -9999 -9999 -9999 -9999 -9999 -9999 -9999 -9999 -9999 -9999 -9999 -9999 -9999 -9999 -9999 -9999 -9999 -9999 -9999 -9999 -9999 -9999 -9999 -9999 -9999 -9999 -9999 -9999 -9999 -9999 -9999 -9999 -9999 -9999 -9999 -9999 -9999 -9999 -9999 -9999 -9999 -9999 -9999 -9999 -9999 -9999 -9999 -9999 -9999 -9999 -9999 -9999 -9999 -9999 -9999 -9999 -9999 -9999 -9999 -9999 -9999 -9999 -9999 -9999 -9999 -9999 -9999 47 49 71 94 146 230 275 299 307 359 379 359 359 523 562 507 471 447 374 315 285 285 285 305 290 201 153 153 153 152 161 198 303 265 218 198 242 302 304 285 267 321 371 317 319 316 325 327 305 307 309 272 221 184 173 162 158 172 271 248 209 184 160 152 154 156 156 152 150 153 196 284 392 303 247 166 152 158 159 152 91 76 76 74 75 104 147 154 134 104 76 76 75 78 93 119 131 141 147 152 155 154 153 153 153 150 142 127 120 117 108 102 93 88 85 83 81 76 76 97 145 149 136 146 151 147 133 107 94 87 84 86 90 93 94 94 93 92 92 92 94 97 104 109 115 128 139 150 152 153 152 152 138 122 108 90 82 76 78 82 83 80 78 82 84 86 85 82 80 78 77 77 78 79 78 74 66 51 43 40 40 39 38 37 36 36 36 36 35 34 33 33 31 30 29 27 26 24 22 20 19 19 18 18 17 16 15 16 16 17 16 15 15 15 15 17 18 19 19 20 19 19 18 16 15 16 18
-9999 -9999 -9999 -9999 -9999 -9999 -9999 -9999 -9999 -9999 -9999 -9999 -9999 -9999 -9999 -9999 -9999 -9999 -9999 -9999 -9999 -9999 -9999 -9999 -9999 -9999 -9999 -9999 -9999 -9999 -9999 -9999 -9999 -9999 -9999 -9999 -9999 -9999 -9999 -9999 -9999 -9999 -9999 -9999 -9999 -9999 -9999 20 26 25 35 56 60 59 59 60 66 67 67 68 69 70 71 72 73 76 77 76 86 112 96 118 129 139 153 153 172 176 144 110 85 72 61 51 59 76 79 78 78 90 100 123 147 152 151 127 86 75 76 57 58 136 153 155 118 89 75 76 91 136 149 112 91 82 81 84 94 105 114 134 152 157 146 139 161 180 182 161 150 138 108 83 77 76 70 73 76 78 88 98 111 131 141 150 149 139 109 89 77 70 66 78 76 59 63 80 113 132 135 143 151 152 154 156 152 152 152 141 149 150 148 114 89 71 76 129 168 169 83 101 168 125 30 61 84 109 125 96 18 74 76 126 152 144 149 143 132 109 76 73 74 71 66 59 65 56 58 73 78 61 35 39 48 68 70 69 71 77 44 1 -9999 -9999 -9999 -9999 -9999 -9999 -9999 -9999 -9999 -9999 -9999 -9999 -9999 -9999 -9999 -9999 -9999 -9999 -9999 -9999 -9999 -9999 -9999 -9999 -9999 -9999 -9999 -9999 -9999 -9999 -9999 -9999 -9999 -9999 -9999 -9999 -9999 -9999 -9999 -9999 -9999 -9999 -9999 -9999 -9999 -9999 -9999 -9999 -9999 -9999 -9999 -9999 -9999 -9999 -9999 -9999 -9999 -9999 -9999 -9999 -9999 -9999 -9999 -9999 -9999 -9999 -9999 -9999 -9999 -9999 -9999 -9999 -9999 -9999 -9999 -9999 -9999 -9999 -9999 -9999 -9999 -9999 -9999 -9999 -9999 -9999 -9999 -9999 -9999 -9999 -9999 -9999 -9999 -9999 -9999 -9999 -9999 -9999 -9999 -9999 -9999 -9999 -9999 -9999 -9999 -9999 -9999 -9999 -9999 -9999 -9999 82 85 78 101 152 129 177 236 301 311 359 359 423 543 614 550 456 413 375 331 305 305 297 247 221 203 177 166 162 151 149 271 423 463 350 303 305 313 309 319 339 425 446 446 389 347 305 305 311 307 301 293 269 228 181 166 152 153 153 152 152 142 148 155 160 161 142 135 142 148 172 266 318 416 338 268 186 152 152 152 144 96 76 76 74 76 142 154 152 158 123 75 75 75 76 88 105 113 125 132 139 152 155 155 154 153 154 146 135 137 126 116 114 108 101 95 90 85 78 82 103 146 152 152 154 152 146 125 100 91 85 82 84 87 90 91 94 95 97 98 98 99 101 106 111 117 132 144 152 152 152 152 149 141 133 124 106 99 92 91 90 88 86 83 83 83 81 78 76 76 74 71 72 78 78 77 75 64 46 43 43 42 41 39 38 37 36 36 36 35 34 33 32 31 30 28 27 25 24 23 22 21 21 20 19 18 17 16 18 19 20 19 18 18 18 18 18 19 21 22 23 24 24 22 19 15 15 16
-9999 -9999 -9999 -9999 -9999 -9999 -9999 -9999 -9999 -9999 -9999 -9999 -9999 -9999 -9999 -9999 -9999 -9999 -9999 -9999 -9999 -9999 -9999 -9999 -9999 -9999 -9999 -9999 -9999 -9999 -9999 -9999 -9999 -9999 -9999 -9999 -9999 -9999 -9999 -9999 -9999 -9999 -9999 -9999 -9999 28 80 78 69 57 57 63 63 62 64 65 66 67 67 68 69 70 70 71 72 75 84 112 151 170 151 157 158 166 210 254 321 232 151 100 80 67 59 55 65 76 75 74 76 109 133 146 152 152 151 133 93 78 76 66 56 89 118 126 100 76 76 74 86 124 137 122 105 92 84 87 102 115 127 142 151 156 151 148 161 174 183 152 152 142 91 76 74 72 65 64 69 76 82 87 96 120 136 151 147 131 96 82 75 76 79 59 56 107 200 340 322 233 152 152 152 152 142 152 151 151 172 201 159 159 159 152 138 103 115 151 172 177 111 114 159 148 140 26 48 60 75 41 31 53 72 80 96 123 139 147 151 124 79 76 71 67 64 81 76 58 54 64 48 20 23 32 41 52 51 47 45 46 4 -9999 -9999 -9999 -9999 -9999 -9999 -9999 -9999 -9999 -9999 -9999 -9999 -9999 -9999 -9999 -9999 -9999 -9999 -9999 -9999 -9999 -9999 -9999 -9999 -9999 -9999 -9999 -9999 -9999 -9999 -9999 -9999 -9999 -9999 -9999 -9999 -9999 -9999 -9999 -9999 -9999 -9999 -9999 -9999 -9999 -9999 -9999 -9999 -9999 -9999 -9999 -9999 -9999 -9999 -9999 -9999 -9999 -9999 -9999 -9999 -9999 -9999 -9999 -9999 -9999 -9999 -9999 -9999 -9999 -9999 -9999 -9999 -9999 -9999 -9999 -9999 -9999 -9999 -9999 -9999 -9999 -9999 -9999 -9999 -9999 -9999 -9999 -9999 -9999 -9999 -9999 -9999 -9999 -9999 -9999 -9999 -9999 -9999 -9999 -9999 -9999 -9999 -9999 -9999 -9999 -9999 -9999 -9999 -9999 -9999 -9999 37 74 76 76 94 151 145 167 248 318 318 294 340 451 557 523 464 444 373 321 308 304 305 304 300 222 203 203 236 224 221 217 339 461 463 387 330 312 316 318 322 321 350 359 374 366 338 306 301 303 287 281 265 245 216 179 160 152 151 154 154 154 137 149 155 157 152 128 137 148 157 188 296 302 315 303 269 192 144 149 155 152 99 77 75 74 76 131 152 152 123 96 76 75 75 79 90 116 144 144 139 141 152 154 155 154 152 146 141 149 152 128 124 123 117 110 103 94 87 77 78 92 133 152 148 145 144 134 116 95 86 81 79 81 84 85 87 91 94 98 98 98 99 101 107 112 118 133 144 152 148 150 152 152 152 152 152 129 112 100 96 92 89 87 84 82 81 79 77 76 76 76 79 76 76 76 78 76 60 45 45 45 44 43 40 38 37 36 36 36 35 34 33 32 31 30 28 27 25 24 23 23 23 22 21 20 18 17 17 19 20 21 21 20 20 20 20 20 20 22 24 26 26 27 26 21 17 17 16
-9999 -9999 -9999 -9999 -9999 -9999 -9999 -9999 -9999 -9999 -9999 -9999 -9999 -9999 -9999 -9999 -9999 -9999 -9999 -9999 -9999 -9999 -9999 -9999 -9999 -9999 -9999 -9999 -9999 -9999 -9999 -9999 -9999 -9999 -9999 -9999 -9999 -9999 97 132 136 134 78 49 60 101 147 133 114 92 82 71 66 66 66 65 66 63 62 73 76 73 76 89 87 73 74 89 122 162 152 147 158 183 251 280 254 207 153 111 76 64 63 62 63 68 74 77 80 129 152 152 152 148 143 126 94 81 77 78 73 62 75 80 76 76 78 81 90 112 122 121 113 104 97 100 121 139 148 153 149 137 137 155 105 98 86 76 74 75 70 61 65 65 63 62 61 70 76 73 76 104 129 156 149 121 76 76 76 74 71 57 49 269 340 422 491 421 248 187 161 152 151 150 124 94 169 259 169 173 202 153 151 151 151 151 152 162 158 150 152 151 130 56 21 18 12 13 38 60 76 77 76 99 111 118 141 117 76 75 74 72 70 82 71 57 48 50 36 21 15 21 26 29 25 16 4 1 -9999 -9999 -9999 -9999 -9999 -9999 -9999 -9999 -9999 -9999 -9999 -9999 -9999 -9999 -9999 -9999 -9999 -9999 -9999 -9999 -9999 -9999 -9999 -9999 -9999 -9999 -9999 -9999 -9999 -9999 -9999 -9999 -9999 -9999 -9999 -9999 -9999 -9999 -9999 -9999 -9999 -9999 -9999 -9999 -9999 -9999 -9999 -9999 -9999 -9999 -9999 -9999 -9999 -9999 -9999 -9999 -9999 -9999 -9999 -9999 -9999 -9999 -9999 -9999 -9999 -9999 -9999 -9999 -9999 -9999 -9999 -9999 -9999 -9999 -9999 -9999 -9999 -9999 -9999 -9999 -9999 -9999 -9999 -9999 -9999 -9999 -9999 -9999 -9999 -9999 -9999 -9999 -9999 -9999 -9999 -9999 -9999 -9999 -9999 -9999 -9999 -9999 -9999 -9999 -9999 -9999 -9999 -9999 -9999 -9999 -9999 -9999 72 82 69 67 86 130 153 152 193 259 312 284 278 365 439 457 457 453 437 364 298 304 301 307 271 291 273 244 289 307 306 318 552 491 439 383 337 305 312 338 363 335 300 296 292 304 307 306 299 307 300 296 241 226 210 199 162 148 152 148 150 153 140 148 155 143 129 134 153 163 159 154 224 274 298 299 296 230 162 130 157 155 148 113 82 76 73 78 117 151 83 76 75 76 76 78 87 113 139 244 249 182 155 154 155 155 154 150 149 153 151 142 138 134 123 114 105 94 87 77 76 76 89 100 102 101 99 90 89 84 79 76 76 76 76 76 78 84 89 94 95 95 102 107 114 117 121 131 139 145 152 152 152 152 153 153 152 148 128 103 98 94 109 108 98 91 85 77 76 75 76 77 82 84 76 60 61 54 48 49 49 49 47 46 43 40 36 36 36 36 35 34 34 33 32 31 28 26 26 25 25 24 24 23 22 20 19 19 19 20 21 23 23 22 22 23 23 22 22 24 27 29 30 32 30 25 20 19 18
-9999 -9999 -9999 -9999 -9999 -9999 -9999 -9999 -9999 -9999 -9999 -9999 -9999 -9999 -9999 -9999 -9999 -9999 -9999 -9999 -9999 -9999 -9999 -9999 -9999 -9999 -9999 -9999 -9999 -9999 -9999 -9999 -9999 -9999 -9999 -9999 -9999 -9999 63 102 102 86 71 59 70 98 131 128 116 99 89 75 69 68 67 64 64 63 66 91 95 81 108 152 137 107 91 73 74 88 102 111 140 163 180 173 179 173 159 137 101 76 71 69 65 65 70 76 83 118 138 143 137 128 118 107 86 80 76 76 69 64 70 71 76 76 81 87 94 108 116 122 124 134 137 127 136 152 154 149 129 134 123 114 135 161 188 177 168 162 158 150 149 162 119 149 61 60 72 73 74 98 125 159 150 118 79 76 75 69 62 51 45 111 148 135 187 183 149 119 89 110 117 116 101 89 149 169 168 212 235 153 140 142 144 146 153 155 154 152 152 151 151 97 64 36 9 25 68 90 97 82 77 89 91 87 84 97 75 76 79 76 75 75 69 57 46 45 27 10 10 13 16 17 13 6 1 -9999 -9999 -9999 -9999 -9999 -9999 -9999 -9999 -9999 -9999 -9999 -9999 -9999 -9999 -9999 -9999 -9999 -9999 -9999 -9999 -9999 -9999 -9999 -9999 -9999 -9999 -9999 -9999 -9999 -9999 -9999 -9999 -9999 -9999 -9999 -9999 -9999 -9999 -9999 -9999 -9999 -9999 -9999 -9999 -9999 -9999 -9999 -9999 -9999 -9999 -9999 -9999 -9999 -9999 -9999 -9999 -9999 -9999 -9999 -9999 -9999 -9999 -9999 -9999 -9999 -9999 -9999 -9999 -9999 -9999 -9999 -9999 -9999 -9999 -9999 -9999 -9999 -9999 -9999 -9999 -9999 -9999 -9999 -9999 -9999 -9999 -9999 -9999 -9999 -9999 -9999 -9999 -9999 -9999 -9999 -9999 -9999 -9999 -9999 -9999 -9999 -9999 -9999 -9999 -9999 -9999 -9999 -9999 -9999 -9999 -9999 -9999 -9999 20 31 52 52 57 73 85 135 138 159 280 288 254 334 420 458 457 463 461 450 449 440 301 268 258 305 305 288 288 272 302 335 472 458 424 371 329 301 305 352 426 386 324 328 324 284 295 299 304 305 309 306 302 307 306 304 286 205 154 138 152 158 154 147 125 127 119 133 153 164 151 141 192 272 314 305 305 249 187 143 139 154 143 118 89 76 76 73 77 98 73 73 75 76 76 76 81 103 128 219 238 188 159 156 155 155 154 152 152 155 154 150 144 138 122 110 103 96 90 80 76 76 76 76 76 79 78 76 76 76 76 76 76 76 76 76 77 82 85 90 91 94 103 109 114 117 121 130 136 147 152 155 153 152 152 153 153 152 138 129 152 155 139 124 105 94 83 76 75 76 76 76 78 79 76 71 55 49 51 53 54 52 50 48 44 41 37 36 36 36 35 35 34 34 33 32 29 27 26 26 26 25 25 24 22 21 20 20 20 21 22 23 24 24 24 24 24 23 23 25 28 32 33 35 33 28 22 22 20
-9999 -9999 -9999 -9999 -9999 -9999 -9999 -9999 -9999 -9999 -9999 -9999 -9999 -9999 -9999 -9999 -9999 -9999 -9999 -9999 -9999 -9999 -9999 -9999 -9999 -9999 -9999 -9999 -9999 -9999 -9999 -9999 -9999 -9999 -9999 -9999 -9999 -9999 -9999 -9999 -9999 -9999 -9999 32 58 78 103 107 104 94 86 75 70 70 69 67 81 111 124 152 128 76 114 145 159 167 149 97 76 100 85 111 111 120 140 149 155 156 153 152 133 92 78 76 72 69 69 76 85 108 125 132 121 106 93 86 76 76 71 68 68 67 69 72 74 79 87 90 96 106 113 130 151 237 269 195 149 151 152 134 141 161 170 188 292 311 591 380 372 452 421 373 338 320 312 306 165 78 64 73 76 94 115 145 132 103 78 76 75 62 52 42 38 52 47 27 34 40 43 45 38 52 62 68 59 68 74 83 112 125 165 152 139 124 119 124 146 152 152 151 151 156 162 112 82 34 16 55 76 73 80 80 78 78 79 77 73 76 74 117 95 76 75 76 69 53 45 41 24 11 5 5 8 9 6 2 -9999 -9999 -9999 -9999 -9999 -9999 -9999 -9999 -9999 -9999 -9999 -9999 -9999 -9999 -9999 -9999 -9999 -9999 -9999 -9999 -9999 -9999 -9999 -9999 -9999 -9999 -9999 -9999 -9999 -9999 -9999 -9999 -9999 -9999 -9999 -9999 -9999 -9999 -9999 -9999 -9999 -9999 -9999 -9999 -9999 -9999 -9999 -9999 -9999 -9999 -9999 -9999 -9999 -9999 -9999 -9999 -9999 -9999 -9999 -9999 -9999 -9999 -9999 -9999 -9999 -9999 -9999 -9999 -9999 -9999 -9999 -9999 -9999 -9999 -9999 -9999 -9999 -9999 -9999 -9999 -9999 -9999 -9999 -9999 -9999 -9999 -9999 -9999 -9999 -9999 -9999 -9999 -9999 -9999 -9999 -9999 -9999 -9999 -9999 -9999 -9999 -9999 -9999 -9999 -9999 -9999 -9999 -9999 -9999 -9999 -9999 -9999 -9999 59 51 101 103 86 104 135 69 110 120 123 143 176 246 318 388 457 480 462 458 460 474 477 416 339 288 310 307 306 305 272 303 330 435 436 408 356 323 299 305 360 463 402 349 374 400 331 276 267 272 286 305 306 305 303 285 291 311 217 155 133 152 161 160 153 137 118 109 109 121 128 112 137 192 271 324 318 302 229 186 160 111 153 145 123 91 76 75 73 74 76 73 73 74 75 76 76 79 94 108 145 155 153 156 156 155 154 153 153 154 156 155 152 148 141 121 110 106 98 91 83 82 76 76 76 76 76 76 76 77 75 75 76 76 76 76 76 76 79 81 86 89 95 103 108 113 117 124 131 137 146 149 169 160 153 152 153 152 152 138 135 148 155 142 126 105 93 81 74 74 76 77 76 76 72 76 56 51 52 56 59 58 55 51 49 45 43 39 37 36 35 35 35 34 34 33 32 30 28 27 27 26 26 25 24 22 21 21 21 21 22 23 24 24 25 25 25 25 24 24 28 31 34 36 37 36 31 26 25 23
-9999 -9999 -9999 -9999 -9999 -9999 -9999 -9999 -9999 -9999 -9999 -9999 -9999 -9999 -9999 -9999 -9999 -9999 -9999 -9999 -9999 -9999 -9999 -9999 -9999 -9999 -9999 -9999 -9999 -9999 -9999 -9999 -9999 -9999 -9999 -9999 -9999 -9999 -9999 -9999 -9999 -9999 -9999 17 36 48 64 76 82 80 74 70 71 72 76 79 161 181 169 154 130 110 140 169 170 161 110 75 76 145 165 175 169 157 157 170 187 183 155 169 195 188 119 103 89 99 115 116 118 121 125 127 116 111 107 100 85 76 83 87 89 87 90 96 106 107 105 109 117 135 142 165 168 215 268 216 152 152 155 137 162 274 429 583 592 878 573 563 573 591 407 334 275 218 152 123 77 71 59 76 78 84 87 84 73 75 75 57 55 37 34 31 29 25 23 20 15 15 15 16 17 18 17 25 24 26 20 15 21 29 65 156 167 139 100 85 107 138 157 155 152 145 111 53 7 13 49 84 115 91 78 76 71 73 76 76 75 68 68 80 69 76 77 72 62 54 45 42 29 10 -9999 1 1 1 1 1 -9999 -9999 -9999 -9999 -9999 -9999 -9999 -9999 -9999 -9999 -9999 -9999 -9999 -9999 -9999 -9999 -9999 -9999 -9999 -9999 -9999 -9999 -9999 -9999 -9999 -9999 -9999 -9999 -9999 -9999 -9999 -9999 -9999 -9999 -9999 -9999 -9999 -9999 -9999 -9999 -9999 -9999 -9999 -9999 -9999 -9999 -9999 -9999 -9999 -9999 -9999 -9999 -9999 -9999 -9999 -9999 -9999 -9999 -9999 -9999 -9999 -9999 -9999 -9999 -9999 -9999 -9999 -9999 -9999 -9999 -9999 -9999 -9999 -9999 -9999 -9999 -9999 -9999 -9999 -9999 -9999 -9999 -9999 -9999 -9999 -9999 -9999 -9999 -9999 -9999 -9999 -9999 -9999 -9999 -9999 -9999 -9999 -9999 -9999 -9999 -9999 -9999 -9999 -9999 -9999 -9999 -9999 -9999 -9999 -9999 -9999 -9999 59 145 64 46 55 62 75 82 114 152 185 205 195 200 288 316 320 333 440 353 397 457 458 451 457 418 339 305 305 305 305 286 305 305 390 392 362 322 307 290 300 307 331 305 317 348 396 339 313 303 281 249 245 287 294 302 316 214 190 153 140 130 129 146 154 151 162 186 156 138 81 76 93 112 147 187 226 202 175 149 135 126 79 119 152 157 157 135 106 78 73 73 73 73 74 75 76 76 76 82 89 120 140 143 152 154 155 152 148 144 149 157 156 152 151 146 128 116 108 98 92 86 86 85 80 77 76 76 76 76 75 76 75 76 76 76 76 77 77 79 82 86 89 97 110 116 124 131 138 143 146 151 152 153 157 153 153 150 143 125 112 113 123 129 120 109 96 89 82 77 78 72 76 78 80 78 62 52 54 62 67 69 67 61 51 48 45 43 40 39 37 36 35 34 34 34 33 32 31 29 28 27 27 26 25 24 23 22 23 23 23 23 24 25 25 26 26 26 25 26 28 31 33 37 39 41 40 36 31 32 30
-9999 -9999 -9999 -9999 -9999 -9999 -9999 -9999 -9999 -9999 -9999 -9999 -9999 -9999 -9999 -9999 -9999 -9999 -9999 -9999 -9999 -9999 -9999 -9999 -9999 -9999 -9999 -9999 -9999 -9999 -9999 -9999 -9999 -9999 -9999 -9999 -9999 -9999 -9999 -9999 -9999 -9999 -9999 14 38 50 60 67 74 76 73 75 78 85 101 148 208 211 174 148 142 181 225 237 172 157 127 106 94 120 148 160 160 163 220 292 271 257 257 311 292 305 226 155 146 122 152 146 144 143 139 137 125 119 124 124 119 118 128 117 110 112 118 123 124 125 131 145 154 152 158 291 227 198 191 169 152 160 165 138 209 368 473 533 448 334 413 459 369 296 270 211 165 123 89 80 75 72 54 64 71 77 76 78 74 44 43 67 79 132 147 168 162 312 316 173 122 142 70 134 134 53 58 15 15 15 15 4 2 9 29 90 134 145 110 78 86 113 151 154 145 135 104 70 6 20 59 100 141 91 79 67 63 78 76 76 72 61 51 51 53 50 56 58 54 58 56 57 55 32 7 -9999 -9999 -9999 -9999 -9999 -9999 -9999 -9999 -9999 -9999 -9999 -9999 -9999 -9999 -9999 -9999 -9999 -9999 -9999 -9999 -9999 -9999 -9999 -9999 -9999 -9999 -9999 -9999 -9999 -9999 -9999 -9999 -9999 -9999 -9999 -9999 -9999 -9999 -9999 -9999 -9999 -9999 -9999 -9999 -9999 -9999 -9999 -9999 -9999 -9999 -9999 -9999 -9999 -9999 -9999 -9999 -9999 -9999 -9999 -9999 -9999 -9999 -9999 -9999 -9999 -9999 -9999 -9999 -9999 -9999 -9999 -9999 -9999 -9999 -9999 -9999 -9999 -9999 -9999 -9999 -9999 -9999 -9999 -9999 -9999 -9999 -9999 -9999 -9999 -9999 -9999 -9999 -9999 -9999 -9999 -9999 -9999 -9999 -9999 -9999 -9999 -9999 -9999 -9999 -9999 -9999 -9999 -9999 -9999 -9999 -9999 -9999 -9999 -9999 -9999 -9999 -9999 111 162 133 119 92 114 97 70 76 144 195 225 188 177 169 185 217 267 423 419 409 439 459 444 433 457 456 337 308 305 305 305 300 326 363 356 323 306 305 302 289 305 304 305 299 296 306 305 305 305 309 310 260 227 215 207 195 209 163 147 141 138 122 135 152 152 181 267 205 151 74 76 83 87 87 99 124 131 118 105 97 74 82 110 153 167 165 153 128 82 76 73 73 73 75 75 75 74 75 77 76 97 111 117 137 152 155 156 134 128 134 152 158 155 152 148 129 115 105 95 90 85 84 84 82 79 76 76 76 75 75 75 76 77 77 76 77 77 77 78 81 83 87 97 120 134 141 144 149 150 151 153 153 152 153 152 152 140 128 103 93 95 101 105 101 97 90 86 82 77 76 68 76 80 83 76 57 54 59 69 75 75 73 72 76 71 62 51 40 39 38 36 35 34 34 33 32 32 30 29 28 27 27 26 25 24 23 22 24 25 24 24 24 25 26 27 27 26 26 28 29 32 34 38 40 43 43 40 34 36 35
-9999 -9999 -9999 -9999 -9999 -9999 -9999 -9999 -9999 -9999 -9999 -9999 -9999 -9999 -9999 -9999 -9999 -9999 -9999 -9999 -9999 -9999 -9999 -9999 -9999 -9999 -9999 -9999 -9999 -9999 -9999 -9999 -9999 -9999 -9999 -9999 -9999 -9999 -9999 -9999 -9999 -9999 -9999 12 59 84 88 74 76 76 76 113 159 165 198 268 275 250 216 157 190 241 280 257 145 149 148 174 158 151 147 149 140 145 216 281 308 304 308 304 304 304 304 244 169 154 154 155 154 153 150 149 133 131 145 150 152 156 158 134 122 121 136 152 218 257 179 346 370 269 161 167 168 152 152 151 152 177 227 187 152 264 345 334 238 192 188 188 158 136 117 88 79 76 76 74 70 66 55 52 55 77 82 73 46 61 89 97 253 312 305 324 316 347 421 264 154 152 153 152 143 85 73 71 87 91 151 125 14 13 16 32 43 57 53 52 49 44 55 59 70 97 76 46 5 16 46 78 78 66 67 58 50 61 67 66 58 43 33 37 47 76 73 76 96 135 153 150 97 76 46 1 -9999 -9999 -9999 -9999 -9999 -9999 -9999 -9999 -9999 -9999 -9999 -9999 -9999 -9999 -9999 -9999 -9999 -9999 -9999 -9999 -9999 -9999 -9999 -9999 -9999 -9999 -9999 -9999 -9999 -9999 -9999 -9999 -9999 -9999 -9999 -9999 -9999 -9999 -9999 -9999 -9999 -9999 -9999 -9999 -9999 -9999 -9999 -9999 -9999 -9999 -9999 -9999 -9999 -9999 -9999 -9999 -9999 -9999 -9999 -9999 -9999 -9999 -9999 -9999 -9999 -9999 -9999 -9999 -9999 -9999 -9999 -9999 -9999 -9999 -9999 -9999 -9999 -9999 -9999 -9999 -9999 -9999 -9999 -9999 -9999 -9999 -9999 -9999 -9999 -9999 -9999 -9999 -9999 -9999 -9999 -9999 -9999 -9999 -9999 -9999 -9999 -9999 -9999 -9999 -9999 -9999 -9999 -9999 -9999 -9999 -9999 -9999 -9999 -9999 -9999 38 122 152 152 153 157 163 180 182 162 125 156 288 186 190 324 362 450 472 448 425 445 447 457 460 393 375 443 475 423 302 305 305 312 305 301 305 305 305 304 283 272 299 305 304 288 293 299 311 305 305 300 304 313 305 305 305 311 307 261 187 159 149 126 115 139 152 153 177 153 107 90 72 76 73 70 76 76 76 76 72 69 69 76 76 101 139 146 154 134 76 75 74 73 74 76 75 73 73 74 74 74 76 80 76 97 127 147 150 127 101 102 119 142 159 148 138 117 104 93 85 83 82 82 81 79 78 77 77 74 75 76 76 75 74 74 75 76 76 76 78 78 78 84 97 126 146 153 152 153 152 150 150 150 152 153 152 131 112 100 84 76 84 84 84 84 84 85 84 82 78 78 76 64 73 82 66 63 70 72 75 77 77 76 76 69 68 75 65 51 46 42 38 37 35 33 33 32 32 31 30 28 27 26 26 25 24 24 25 27 27 26 25 25 27 28 28 28 28 29 32 34 33 35 39 42 45 49 47 38 39 39
-9999 -9999 -9999 -9999 -9999 -9999 -9999 -9999 -9999 -9999 -9999 -9999 -9999 -9999 -9999 -9999 -9999 -9999 -9999 -9999 -9999 -9999 -9999 -9999 -9999 -9999 -9999 -9999 -9999 -9999 -9999 -9999 -9999 1 -9999 -9999 -9999 -9999 -9999 -9999 -9999 1 1 13 57 93 114 82 76 78 76 96 134 151 210 304 231 252 230 189 251 284 287 272 189 165 146 189 218 206 198 194 179 170 218 267 303 293 304 305 305 304 304 251 177 165 157 155 154 152 153 144 141 144 152 152 153 155 151 124 120 143 164 215 310 310 317 359 388 352 292 158 152 152 152 152 152 170 202 195 148 151 170 164 136 139 155 146 138 118 97 76 76 72 76 70 62 60 55 53 51 61 72 71 47 83 158 169 294 305 305 301 304 353 523 473 168 152 135 131 123 91 78 77 80 70 118 132 65 14 16 26 38 52 48 39 31 29 44 53 66 81 55 3 6 12 31 46 64 76 71 57 46 40 45 45 40 26 26 34 45 66 71 82 108 147 152 125 87 76 54 5 1 -9999 -9999 -9999 -9999 -9999 -9999 -9999 -9999 -9999 -9999 -9999 -9999 -9999 -9999 -9999 -9999 -9999 -9999 -9999 -9999 -9999 -9999 -9999 -9999 -9999 -9999 -9999 -9999 -9999 -9999 -9999 -9999 -9999 -9999 -9999 -9999 -9999 -9999 -9999 -9999 -9999 -9999 -9999 -9999 -9999 -9999 -9999 -9999 -9999 -9999 -9999 -9999 -9999 -9999 -9999 -9999 -9999 -9999 -9999 -9999 -9999 -9999 -9999 -9999 -9999 -9999 -9999 -9999 -9999 -9999 -9999 -9999 -9999 -9999 -9999 -9999 -9999 -9999 -9999 -9999 -9999 -9999 -9999 -9999 -9999 -9999 -9999 -9999 -9999 -9999 -9999 -9999 -9999 -9999 -9999 -9999 -9999 -9999 -9999 -9999 -9999 -9999 -9999 -9999 -9999 -9999 -9999 -9999 -9999 -9999 -9999 -9999 -9999 17 71 119 140 158 207 261 260 240 222 201 183 225 298 274 256 310 361 437 459 457 457 457 458 462 470 375 325 344 476 430 291 288 298 304 303 298 303 305 304 278 267 264 285 282 278 296 307 352 370 306 301 293 279 277 279 304 292 282 279 236 174 152 146 140 136 129 152 155 159 129 72 76 74 76 76 76 78 76 73 73 77 104 120 135 83 74 76 90 152 149 76 74 73 72 75 76 74 73 73 73 74 74 74 74 74 76 98 129 148 148 104 83 86 106 131 130 121 104 90 84 79 78 79 80 80 77 77 76 74 74 75 76 75 74 76 76 75 75 75 76 76 76 76 85 98 122 139 151 152 152 150 145 142 144 148 152 152 127 107 92 75 76 78 79 80 80 81 83 83 82 80 78 76 61 59 58 61 73 77 76 76 76 76 73 69 63 60 63 63 54 47 47 41 38 36 34 34 34 35 33 31 29 27 28 27 25 25 26 27 29 29 27 26 26 28 29 29 29 31 33 35 37 39 40 42 44 47 52 54 49 40 42
-9999 -9999 -9999 -9999 -9999 -9999 -9999 -9999 -9999 -9999 -9999 -9999 -9999 -9999 -9999 -9999 -9999 -9999 -9999 -9999 -9999 -9999 -9999 -9999 -9999 73 67 -9999 -9999 -9999 -9999 -9999 -9999 1 -9999 -9999 -9999 -9999 -9999 -9999 -9999 1 1 7 26 54 104 67 59 68 69 69 78 90 130 170 197 265 167 236 283 292 282 304 265 235 199 235 264 255 242 248 233 212 212 238 264 278 295 306 306 305 302 271 205 187 159 156 154 152 152 144 151 152 152 152 153 152 145 117 122 157 164 189 240 252 262 264 258 283 283 205 152 156 158 147 151 151 133 113 101 115 119 122 125 133 151 151 151 117 97 79 76 68 61 58 54 54 54 52 51 50 49 58 47 57 86 88 174 188 170 212 248 308 416 619 340 227 150 118 108 87 76 69 65 54 49 44 31 22 14 22 40 63 51 33 18 19 53 63 67 75 44 2 2 6 22 38 68 78 70 53 43 27 24 23 22 15 20 26 37 54 61 70 84 81 78 83 67 62 46 13 2 1 1 -9999 -9999 -9999 -9999 -9999 -9999 -9999 -9999 -9999 -9999 -9999 -9999 -9999 -9999 -9999 -9999 -9999 -9999 -9999 -9999 -9999 -9999 -9999 -9999 -9999 -9999 -9999 -9999 -9999 -9999 -9999 -9999 -9999 -9999 -9999 -9999 -9999 -9999 -9999 -9999 -9999 -9999 -9999 -9999 -9999 -9999 -9999 -9999 -9999 -9999 -9999 -9999 -9999 -9999 -9999 -9999 -9999 -9999 -9999 -9999 -9999 -9999 -9999 -9999 -9999 -9999 -9999 -9999 -9999 -9999 -9999 -9999 -9999 -9999 -9999 -9999 -9999 -9999 -9999 -9999 -9999 -9999 -9999 -9999 -9999 -9999 -9999 -9999 -9999 -9999 -9999 -9999 -9999 -9999 -9999 -9999 -9999 -9999 -9999 -9999 -9999 -9999 -9999 -9999 -9999 -9999 -9999 -9999 -9999 -9999 47 89 122 148 173 228 281 330 313 278 239 213 206 228 250 249 265 292 304 325 422 457 430 430 442 456 472 460 373 323 423 353 268 267 296 309 302 299 303 300 269 247 248 254 260 268 284 304 333 436 491 452 311 300 285 242 223 188 216 178 188 177 158 152 152 152 141 136 157 158 143 108 74 77 81 99 117 121 102 102 99 89 109 145 161 177 157 86 71 82 157 143 77 75 73 72 74 76 72 72 72 73 73 74 75 76 77 76 80 100 126 139 105 83 73 76 90 102 100 89 76 78 76 76 78 78 78 77 76 74 73 73 74 74 76 76 76 76 75 76 77 79 86 87 89 95 101 113 130 150 152 152 149 141 133 134 136 137 134 117 102 90 77 76 79 81 80 78 79 81 81 81 82 81 68 61 69 64 72 76 78 78 77 76 76 74 69 63 60 57 57 53 47 47 47 39 36 35 36 37 38 37 34 32 32 32 32 31 29 28 30 31 30 29 27 28 29 30 30 29 33 38 40 42 45 46 46 46 49 56 60 61 55 50
-9999 -9999 -9999 -9999 -9999 -9999 -9999 -9999 -9999 -9999 -9999 -9999 -9999 -9999 -9999 -9999 -9999 -9999 -9999 -9999 -9999 -9999 471 377 299 171 44 -9999 -9999 -9999 -9999 -9999 19 15 -9999 -9999 -9999 -9999 -9999 -9999 -9999 -9999 -9999 -9999 -9999 -9999 -9999 9 27 43 50 60 63 66 68 70 76 98 140 147 129 113 138 184 270 292 281 305 310 299 291 310 296 277 269 276 292 304 304 306 304 291 280 264 231 212 194 183 168 149 149 152 151 152 152 152 152 151 146 129 117 131 127 116 116 123 119 119 118 119 121 123 118 116 87 76 72 76 82 101 119 139 140 136 143 138 136 118 141 127 136 152 153 158 222 188 163 260 188 149 138 149 128 102 89 116 130 140 130 147 166 231 288 291 302 352 536 576 362 286 130 102 139 138 123 124 128 159 152 144 80 14 22 62 34 11 22 13 8 26 25 26 14 4 1 -9999 8 22 48 55 50 38 30 16 9 4 4 6 11 15 21 33 41 52 54 45 37 40 43 39 31 14 6 1 1 1 -9999 -9999 -9999 -9999 -9999 -9999 -9999 -9999 -9999 -9999 -9999 -9999 -9999 -9999 -9999 -9999 -9999 -9999 -9999 -9999 -9999 -9999 -9999 -9999 -9999 -9999 -9999 -9999 -9999 -9999 -9999 -9999 -9999 -9999 -9999 -9999 -9999 -9999 -9999 -9999 -9999 -9999 -9999 -9999 -9999 -9999 -9999 -9999 -9999 -9999 -9999 -9999 -9999 -9999 -9999 -9999 -9999 -9999 -9999 -9999 -9999 -9999 -9999 -9999 -9999 -9999 -9999 -9999 -9999 -9999 -9999 -9999 -9999 -9999 -9999 -9999 -9999 -9999 -9999 -9999 -9999 -9999 -9999 -9999 -9999 -9999 -9999 -9999 -9999 -9999 -9999 -9999 -9999 -9999 -9999 -9999 -9999 -9999 -9999 -9999 -9999 -9999 -9999 -9999 -9999 -9999 -9999 -9999 71 148 172 190 224 250 298 314 308 252 222 205 194 195 208 225 262 284 309 327 362 440 458 457 460 455 430 430 441 385 323 310 330 309 293 243 238 259 309 310 273 214 230 231 239 249 287 302 307 415 593 538 491 353 305 287 243 218 185 171 157 147 141 133 138 155 152 139 110 117 118 108 88 74 79 97 144 158 167 166 168 172 152 136 146 153 175 175 157 136 69 113 148 81 76 75 73 72 73 72 72 72 73 73 74 75 75 76 76 76 76 77 90 92 85 75 73 73 78 79 76 76 76 76 76 77 77 77 76 75 73 74 75 75 75 76 76 76 76 75 76 79 88 107 119 132 139 133 128 136 152 153 152 152 142 118 115 112 106 101 92 85 81 75 74 77 81 81 76 76 76 76 74 75 62 66 73 77 75 76 80 81 80 78 76 76 76 74 69 65 60 58 51 48 45 41 39 37 37 39 42 44 45 44 43 42 40 39 38 36 35 34 34 34 33 32 32 32 31 31 33 38 44 47 49 52 53 52 51 55 62 68 74 76 61
-9999 -9999 -9999 -9999 -9999 -9999 -9999 -9999 -9999 -9999 -9999 -9999 -9999 -9999 -9999 -9999 -9999 -9999 -9999 -9999 116 340 462 461 234 116 21 -9999 -9999 21 45 77 98 102 28 1 -9999 -9999 -9999 -9999 -9999 -9999 28 31 46 44 49 54 81 76 83 67 66 70 70 63 49 50 56 51 48 48 59 107 147 154 235 302 311 302 306 312 304 301 301 304 307 305 308 295 282 264 249 231 202 192 191 183 169 149 140 152 153 152 152 152 152 152 150 133 117 115 111 104 96 94 87 84 83 83 85 88 87 81 62 64 78 75 78 107 136 152 152 152 155 160 160 153 164 198 236 340 340 388 573 546 391 516 433 335 301 439 295 212 178 147 145 164 165 183 214 299 314 339 423 523 669 770 474 246 152 159 165 151 152 152 164 168 146 109 76 75 32 13 12 44 41 29 17 15 8 4 3 13 3 1 1 8 25 32 31 23 16 6 1 1 -9999 3 6 8 11 19 26 34 32 25 20 22 28 26 21 11 6 1 1 1 1 1 -9999 -9999 -9999 -9999 -9999 -9999 -9999 -9999 -9999 -9999 -9999 -9999 -9999 -9999 -9999 -9999 -9999 -9999 -9999 -9999 -9999 -9999 -9999 -9999 -9999 -9999 -9999 -9999 -9999 -9999 -9999 -9999 -9999 -9999 -9999 -9999 -9999 -9999 -9999 -9999 -9999 -9999 -9999 -9999 -9999 -9999 -9999 -9999 -9999 -9999 -9999 -9999 -9999 -9999 -9999 -9999 -9999 -9999 -9999 -9999 -9999 -9999 -9999 -9999 -9999 -9999 -9999 -9999 -9999 -9999 -9999 -9999 -9999 -9999 -9999 -9999 -9999 -9999 -9999 -9999 -9999 -9999 -9999 -9999 -9999 -9999 -9999 -9999 -9999 -9999 -9999 -9999 -9999 -9999 -9999 -9999 -9999 -9999 -9999 -9999 -9999 -9999 -9999 3 52 75 89 166 190 207 236 258 294 292 254 174 162 171 175 185 202 229 286 330 407 446 456 458 439 457 457 457 470 440 372 347 323 377 452 381 321 273 288 229 293 282 224 238 273 262 244 271 305 307 304 417 481 339 309 331 289 271 242 219 192 212 194 157 153 152 134 131 134 127 98 86 80 77 76 74 74 98 153 152 168 178 183 175 159 152 151 151 164 162 146 155 93 99 96 72 76 75 73 72 72 71 72 72 73 74 74 74 74 74 75 75 76 76 76 82 80 75 73 75 76 77 75 76 76 76 77 78 77 76 76 73 74 75 76 76 76 76 76 77 78 75 76 84 98 121 135 150 152 144 142 149 155 153 152 152 141 114 105 101 91 86 80 76 77 77 74 76 79 80 72 67 66 65 64 66 66 71 76 76 77 78 83 81 78 79 77 76 76 76 76 74 68 62 54 50 45 40 38 38 39 41 44 47 49 50 50 48 46 43 41 40 38 37 36 36 35 34 33 33 32 33 36 40 47 50 52 56 57 55 57 63 68 72 76 78 76
-9999 -9999 -9999 -9999 -9999 -9999 -9999 -9999 -9999 -9999 -9999 -9999 -9999 -9999 -9999 -9999 7 104 99 85 269 398 365 327 121 38 43 67 135 442 492 455 338 187 167 142 89 82 96 72 144 421 470 573 467 371 358 289 309 272 275 161 111 81 72 66 57 51 46 40 37 32 36 46 61 82 176 252 296 319 291 293 304 307 302 301 304 299 271 244 226 210 199 182 152 152 167 162 157 139 133 150 154 154 150 151 152 152 152 144 132 115 105 99 90 85 77 75 73 70 76 77 78 78 60 57 60 70 76 127 162 169 166 154 158 163 152 152 153 171 186 286 295 286 303 340 329 263 421 431 475 492 421 331 286 176 156 147 159 181 214 255 268 395 573 528 394 366 308 169 112 107 90 90 107 123 152 162 121 87 78 59 48 54 70 79 58 50 40 39 45 51 47 44 28 6 -9999 -9999 3 9 10 6 2 -9999 -9999 -9999 1 1 1 1 1 3 4 4 4 4 7 12 15 11 7 4 3 1 1 1 1 1 -9999 -9999 -9999 -9999 -9999 -9999 -9999 -9999 -9999 -9999 -9999 -9999 -9999 -9999 -9999 -9999 -9999 -9999 -9999 -9999 -9999 -9999 -9999 -9999 -9999 -9999 -9999 -9999 -9999 -9999 -9999 -9999 -9999 -9999 -9999 -9999 -9999 -9999 -9999 -9999 -9999 -9999 -9999 -9999 -9999 -9999 -9999 -9999 -9999 -9999 -9999 -9999 -9999 -9999 -9999 -9999 -9999 -9999 -9999 -9999 -9999 -9999 -9999 -9999 -9999 -9999 -9999 -9999 -9999 -9999 -9999 -9999 -9999 -9999 -9999 -9999 -9999 -9999 -9999 -9999 -9999 -9999 -9999 -9999 -9999 -9999 -9999 -9999 -9999 -9999 -9999 -9999 -9999 -9999 -9999 -9999 -9999 -9999 -9999 -9999 -9999 64 84 61 52 69 89 163 177 185 193 195 186 161 145 152 153 156 159 187 219 257 324 432 457 459 462 462 437 457 457 468 575 555 476 451 462 467 459 373 327 310 289 222 201 188 218 276 303 305 313 312 301 302 302 347 366 306 316 295 283 279 282 289 307 223 167 142 138 130 124 118 108 101 89 81 76 76 76 76 76 90 124 137 163 181 188 175 161 153 152 152 155 151 79 75 73 76 77 73 72 72 71 71 71 71 72 72 73 73 73 73 73 73 74 75 76 76 76 77 77 75 72 73 74 75 76 76 76 76 76 78 76 75 74 73 74 75 76 76 76 77 79 84 86 83 90 101 115 136 147 152 152 152 153 154 154 153 151 142 133 131 125 121 87 85 76 76 75 74 77 76 76 73 76 83 85 81 76 76 75 76 78 79 79 78 81 75 74 54 66 76 76 76 77 76 73 65 55 50 45 40 39 40 42 44 47 51 57 59 59 54 50 46 44 43 41 40 39 38 37 36 34 34 37 40 41 44 50 53 56 61 64 67 71 76 75 76 77 76 75
-9999 -9999 -9999 -9999 -9999 -9999 -9999 -9999 -9999 -9999 -9999 -9999 -9999 -9999 -9999 -9999 -9999 83 87 77 188 305 303 269 134 101 192 188 276 340 421 421 308 245 322 267 165 156 269 188 262 591 653 642 488 387 307 269 269 182 160 91 76 70 67 67 66 64 63 60 55 51 54 64 104 148 192 243 281 280 304 273 279 304 291 284 294 287 261 215 194 175 169 165 144 142 157 146 141 123 133 154 152 152 140 140 143 145 149 151 144 122 109 99 90 84 78 76 75 76 67 72 78 79 71 63 51 63 76 115 160 162 165 152 159 148 123 118 125 134 149 149 170 219 221 271 254 183 232 278 321 322 289 302 292 277 158 137 146 159 177 202 240 336 492 468 236 223 134 79 73 66 56 53 74 91 125 150 112 92 80 73 76 72 77 76 72 63 42 42 55 72 69 68 49 6 -9999 -9999 -9999 2 4 2 1 -9999 -9999 -9999 -9999 -9999 -9999 -9999 -9999 -9999 -9999 2 3 3 5 7 7 3 -9999 1 1 1 1 1 1 -9999 -9999 -9999 -9999 -9999 -9999 -9999 -9999 -9999 -9999 -9999 -9999 -9999 -9999 -9999 -9999 -9999 -9999 -9999 -9999 -9999 -9999 -9999 -9999 -9999 -9999 -9999 -9999 -9999 -9999 -9999 -9999 -9999 -9999 -9999 -9999 -9999 -9999 -9999 -9999 -9999 -9999 -9999 -9999 -9999 -9999 -9999 -9999 -9999 -9999 -9999 -9999 -9999 -9999 -9999 -9999 -9999 -9999 -9999 -9999 -9999 -9999 -9999 -9999 -9999 -9999 -9999 -9999 -9999 -9999 -9999 -9999 -9999 -9999 -9999 -9999 -9999 -9999 -9999 -9999 -9999 -9999 -9999 -9999 -9999 -9999 -9999 -9999 -9999 -9999 -9999 -9999 -9999 -9999 -9999 -9999 -9999 -9999 84 120 119 140 134 135 119 112 116 120 130 152 153 152 150 137 152 152 153 153 154 155 235 284 304 343 428 457 457 453 455 345 437 460 458 551 554 479 458 457 445 416 313 305 293 243 175 172 190 223 284 303 305 308 282 293 304 305 329 370 408 391 296 294 300 305 271 157 150 152 152 147 136 134 130 116 105 89 80 76 75 75 75 76 76 111 141 167 183 187 170 156 152 152 150 152 144 79 73 69 69 73 72 71 71 71 71 71 71 71 72 72 73 73 72 73 73 74 74 75 76 76 76 76 74 72 73 75 76 76 76 76 75 74 72 72 73 73 73 74 75 76 76 76 79 83 92 99 87 96 108 122 141 149 152 152 152 153 153 153 152 152 147 149 153 152 152 117 101 86 80 78 76 75 76 76 76 81 85 86 82 79 78 77 79 81 81 76 68 57 66 75 53 61 77 77 76 77 71 68 61 51 48 44 40 41 43 43 44 49 56 63 66 65 58 51 47 45 43 41 41 40 39 38 36 36 38 42 45 47 46 50 53 57 64 68 73 76 78 77 77 77 77 77
-9999 -9999 -9999 -9999 -9999 -9999 -9999 -9999 -9999 -9999 -9999 -9999 72 55 -9999 -9999 -9999 88 151 79 124 242 251 388 264 395 435 379 448 385 290 188 213 188 239 205 152 183 282 322 304 380 340 311 169 141 94 86 81 65 67 65 65 66 68 69 67 67 68 68 66 69 94 83 149 151 174 211 286 252 274 252 243 262 266 261 263 262 250 215 189 159 152 150 143 137 130 125 119 115 126 141 135 126 117 120 126 131 139 155 151 123 107 97 89 84 77 78 76 78 76 67 76 78 76 65 47 46 48 60 84 89 90 95 140 94 142 220 231 245 265 231 231 267 193 224 209 161 166 210 236 219 207 225 266 242 163 131 146 153 154 153 188 283 449 470 236 149 86 75 76 76 72 48 37 74 86 98 89 89 84 76 66 73 75 76 77 60 25 23 34 57 68 76 72 12 -9999 -9999 -9999 1 1 1 1 -9999 -9999 -9999 -9999 -9999 -9999 -9999 -9999 -9999 -9999 -9999 1 1 1 1 1 -9999 -9999 -9999 -9999 1 1 1 1 -9999 -9999 -9999 -9999 -9999 -9999 -9999 -9999 -9999 -9999 -9999 -9999 -9999 -9999 -9999 -9999 -9999 -9999 -9999 -9999 -9999 -9999 -9999 -9999 -9999 -9999 -9999 -9999 -9999 -9999 -9999 -9999 -9999 -9999 -9999 -9999 -9999 -9999 -9999 -9999 -9999 -9999 -9999 -9999 -9999 -9999 -9999 -9999 -9999 -9999 -9999 -9999 -9999 -9999 -9999 -9999 -9999 -9999 -9999 -9999 -9999 -9999 -9999 -9999 -9999 -9999 -9999 -9999 -9999 -9999 -9999 -9999 -9999 -9999 -9999 -9999 -9999 -9999 -9999 -9999 -9999 -9999 -9999 -9999 -9999 -9999 -9999 -9999 -9999 -9999 -9999 -9999 -9999 -9999 -9999 -9999 34 84 149 152 152 152 152 156 152 153 170 156 101 108 115 123 149 159 158 155 153 152 152 174 292 313 327 367 398 418 416 414 433 329 423 457 451 461 487 440 409 374 355 332 291 283 252 207 160 158 173 206 288 309 304 297 267 283 305 300 341 404 458 411 305 305 308 213 166 159 155 158 158 152 149 147 144 125 106 91 91 85 91 96 108 77 77 105 150 169 183 183 161 153 153 143 138 152 155 119 85 76 74 69 69 70 70 70 70 70 70 71 72 72 72 72 72 72 72 73 74 75 76 76 76 76 76 72 73 76 77 77 75 74 72 72 72 72 73 75 75 74 75 76 77 78 82 89 102 121 119 112 116 128 143 147 150 151 152 153 152 152 152 152 152 153 152 153 154 141 133 107 94 85 78 77 76 77 78 82 84 84 82 80 79 79 79 80 80 67 59 71 77 74 53 59 78 78 76 74 68 61 56 46 43 42 41 44 48 50 52 57 63 70 72 72 65 56 47 45 44 42 41 40 39 38 37 39 42 46 49 52 52 55 57 60 69 72 76 77 78 78 77 77 77 77
-9999 -9999 -9999 -9999 -9999 -9999 -9999 -9999 -9999 -9999 -9999 -9999 64 94 86 54 41 111 111 58 59 124 188 114 149 149 277 170 185 263 188 98 65 81 153 150 214 345 192 139 89 35 28 5 1 1 35 53 56 65 68 69 68 76 72 74 78 85 111 120 127 114 113 119 128 143 164 174 189 218 228 215 201 209 225 228 216 213 211 197 177 152 152 153 154 153 150 152 139 102 101 100 95 81 83 90 96 97 103 128 129 104 90 83 83 76 65 74 65 65 63 54 63 66 60 55 46 42 39 35 35 34 42 44 72 89 103 158 211 172 181 163 154 140 135 149 165 119 104 166 134 117 102 144 157 149 89 93 138 158 136 128 151 284 367 334 229 117 72 74 76 80 76 83 44 28 52 54 57 75 63 47 42 73 75 74 19 1 -9999 -9999 -9999 21 35 44 27 1 -9999 -9999 -9999 -9999 1 -9999 -9999 -9999 -9999 -9999 -9999 -9999 -9999 -9999 -9999 -9999 -9999 -9999 -9999 -9999 -9999 -9999 -9999 -9999 -9999 -9999 -9999 -9999 -9999 -9999 -9999 -9999 -9999 -9999 -9999 -9999 -9999 -9999 -9999 -9999 -9999 -9999 -9999 -9999 -9999 -9999 -9999 -9999 -9999 -9999 -9999 -9999 -9999 -9999 -9999 -9999 -9999 -9999 -9999 -9999 -9999 -9999 -9999 -9999 -9999 -9999 -9999 -9999 -9999 -9999 -9999 -9999 -9999 -9999 -9999 -9999 -9999 -9999 -9999 -9999 -9999 -9999 -9999 -9999 -9999 -9999 -9999 -9999 -9999 -9999 -9999 -9999 -9999 -9999 -9999 -9999 -9999 -9999 -9999 -9999 -9999 -9999 -9999 -9999 -9999 -9999 -9999 -9999 -9999 -9999 -9999 -9999 -9999 -9999 -9999 -9999 -9999 -9999 -9999 -9999 -9999 -9999 -9999 -9999 -9999 127 146 162 166 155 163 169 169 170 170 166 169 183 181 160 156 153 164 167 161 154 153 149 158 214 302 310 303 310 335 338 316 309 305 289 274 339 433 412 352 358 354 321 288 277 266 251 236 209 176 161 151 150 153 232 260 306 314 303 256 288 339 434 408 347 307 304 258 288 177 173 163 158 150 132 131 124 133 153 147 131 125 129 143 158 165 152 94 76 75 79 134 164 166 152 152 154 155 124 136 151 147 130 104 88 76 69 69 69 69 69 69 70 71 71 71 71 71 71 71 71 73 74 76 76 76 76 75 72 71 70 73 71 71 71 71 71 72 72 74 75 76 76 76 76 76 78 80 90 104 120 144 152 152 141 144 145 140 143 148 152 151 153 152 152 152 153 152 153 152 145 148 148 120 106 96 85 81 77 78 79 82 83 80 78 78 78 79 63 62 62 60 71 76 77 73 51 50 63 71 69 63 59 54 51 45 43 42 44 47 53 56 58 64 69 76 76 76 76 74 76 69 55 46 44 42 40 39 40 42 45 48 51 55 60 67 70 72 76 76 78 78 79 79 78 77 77 77
-9999 -9999 -9999 -9999 -9999 -9999 -9999 -9999 -9999 -9999 -9999 -9999 134 167 99 78 70 132 75 13 17 59 89 42 38 70 58 75 78 100 82 77 64 66 61 64 35 -9999 -9999 -9999 -9999 -9999 -9999 -9999 -9999 1 51 79 78 73 76 84 95 146 76 76 98 147 160 152 152 157 188 210 156 157 172 179 185 199 204 194 181 181 201 208 190 178 169 171 164 151 152 148 153 152 141 134 129 92 84 76 76 76 77 80 80 76 76 90 91 83 75 69 61 60 83 75 56 54 53 51 50 48 49 42 43 41 39 36 32 48 53 47 32 32 31 30 29 27 26 25 24 23 21 21 20 19 18 18 18 45 64 77 82 79 75 76 107 124 105 119 146 218 269 252 148 93 71 76 75 74 56 72 45 18 14 17 20 25 21 13 11 23 26 23 -9999 -9999 -9999 -9999 1 4 8 10 5 -9999 -9999 -9999 -9999 1 -9999 -9999 -9999 -9999 -9999 -9999 -9999 -9999 -9999 -9999 -9999 -9999 -9999 -9999 -9999 -9999 -9999 -9999 -9999 -9999 -9999 -9999 -9999 -9999 -9999 -9999 -9999 -9999 -9999 -9999 -9999 -9999 -9999 -9999 -9999 -9999 -9999 -9999 -9999 -9999 -9999 -9999 -9999 -9999 -9999 -9999 -9999 -9999 -9999 -9999 -9999 -9999 -9999 -9999 -9999 -9999 -9999 -9999 -9999 -9999 -9999 -9999 -9999 -9999 -9999 -9999 -9999 -9999 -9999 -9999 -9999 -9999 -9999 -9999 -9999 -9999 -9999 -9999 -9999 -9999 -9999 -9999 -9999 -9999 -9999 -9999 -9999 -9999 -9999 -9999 -9999 -9999 -9999 -9999 -9999 -9999 -9999 -9999 -9999 -9999 -9999 -9999 -9999 -9999 -9999 -9999 -9999 -9999 -9999 -9999 -9999 -9999 -9999 -9999 -9999 -9999 -9999 -9999 -9999 -9999 127 162 158 165 169 168 175 181 183 183 179 174 173 179 179 166 161 161 165 163 154 152 152 154 192 266 305 308 303 301 304 306 304 306 304 298 274 293 332 328 305 305 317 292 267 255 246 232 222 203 178 166 194 163 157 146 167 326 310 256 250 293 411 417 359 314 306 266 233 188 172 166 151 132 98 84 84 84 98 145 164 152 146 147 147 118 133 95 82 75 75 76 100 123 133 138 141 148 158 128 133 152 156 151 86 142 114 69 69 69 69 69 69 70 71 71 71 71 70 70 70 70 73 76 77 76 77 75 73 70 70 70 71 71 71 71 71 71 71 72 74 76 77 77 76 76 76 86 93 107 120 134 150 152 152 150 152 146 134 137 142 147 148 152 152 152 152 152 153 149 142 128 121 118 108 103 96 86 81 77 78 80 82 82 79 76 76 69 64 69 72 76 76 76 76 78 72 56 51 49 57 58 53 50 48 46 44 45 44 46 49 54 57 58 64 68 73 74 75 78 76 73 68 60 51 47 43 42 42 42 43 46 48 51 56 62 70 75 76 76 77 78 78 79 78 78 77 77 77
-9999 -9999 -9999 -9999 -9999 -9999 -9999 -9999 -9999 -9999 -9999 -9999 207 284 90 10 -9999 -9999 -9999 60 71 27 1 1 33 60 21 33 35 -9999 -9999 -9999 -9999 -9999 -9999 -9999 1 -9999 -9999 1 -9999 -9999 5 1 1 1 79 138 73 53 51 41 50 57 69 75 77 77 70 94 152 176 274 294 212 179 165 164 161 168 173 169 161 152 167 178 166 155 151 153 152 148 145 133 129 121 105 95 119 122 114 161 182 150 86 72 76 84 71 71 75 73 70 101 141 161 192 184 189 280 229 239 269 241 154 120 120 138 144 138 84 78 88 114 132 88 76 76 76 76 82 84 83 75 86 78 70 79 104 68 30 21 24 35 44 54 59 66 76 75 58 74 81 82 78 82 76 76 81 76 52 -9999 -9999 -9999 -9999 -9999 -9999 -9999 -9999 -9999 -9999 -9999 -9999 -9999 -9999 -9999 -9999 -9999 -9999 -9999 -9999 -9999 -9999 -9999 -9999 -9999 -9999 -9999 -9999 -9999 -9999 -9999 -9999 -9999 -9999 -9999 -9999 -9999 -9999 -9999 -9999 -9999 -9999 -9999 -9999 -9999 -9999 -9999 -9999 -9999 -9999 -9999 -9999 -9999 -9999 -9999 -9999 -9999 -9999 -9999 -9999 -9999 -9999 -9999 -9999 -9999 -9999 -9999 -9999 -9999 -9999 -9999 -9999 -9999 -9999 -9999 -9999 -9999 -9999 -9999 -9999 -9999 -9999 -9999 -9999 -9999 -9999 -9999 -9999 -9999 -9999 -9999 -9999 -9999 -9999 -9999 -9999 -9999 -9999 -9999 -9999 -9999 -9999 -9999 -9999 -9999 -9999 -9999 -9999 -9999 -9999 -9999 -9999 -9999 -9999 -9999 -9999 -9999 -9999 -9999 -9999 -9999 -9999 -9999 -9999 -9999 -9999 -9999 -9999 -9999 -9999 -9999 -9999 -9999 -9999 -9999 -9999 -9999 -9999 -9999 36 79 84 113 149 138 110 82 120 157 159 152 155 152 160 172 176 179 179 179 179 176 173 173 172 160 152 159 157 152 144 139 154 234 296 308 305 305 306 305 305 301 303 291 231 243 274 311 307 302 296 296 305 294 254 245 237 247 264 277 304 311 304 286 288 332 143 151 154 288 310 309 320 317 305 304 305 276 175 135 85 78 77 76 74 72 72 72 72 99 153 153 154 152 156 98 81 76 75 75 75 74 76 75 79 91 96 100 99 79 158 153 135 125 93 121 149 186 76 69 69 69 69 70 71 71 71 70 70 70 69 69 71 72 69 73 75 72 70 70 70 70 70 70 71 71 71 71 71 71 75 74 75 76 77 78 85 106 120 136 145 152 154 153 152 153 152 152 125 130 140 152 147 150 153 152 152 152 143 131 124 114 107 104 99 96 92 85 81 76 76 79 81 80 79 78 66 68 76 78 77 78 81 80 77 74 70 59 51 51 50 51 51 52 55 55 54 52 49 48 50 53 55 56 62 64 66 65 65 63 60 49 52 52 48 46 46 46 47 50 51 49 52 55 58 62 68 73 76 76 76 77 77 78 78 77 77 77 77
-9999 -9999 -9999 -9999 -9999 -9999 -9999 -9999 -9999 -9999 -9999 -9999 111 149 43 -9999 -9999 -9999 -9999 -9999 -9999 -9999 -9999 -9999 -9999 -9999 -9999 -9999 -9999 -9999 -9999 -9999 -9999 -9999 -9999 -9999 -9999 -9999 -9999 1 2 6 13 15 11 2 20 32 13 22 25 36 51 65 89 135 94 84 78 82 118 166 209 233 197 172 152 152 150 155 159 158 155 152 152 159 152 148 146 149 133 132 128 119 108 106 122 137 166 192 135 202 286 250 173 129 143 141 118 112 119 79 102 149 167 179 209 214 206 269 304 367 383 308 209 156 168 176 175 150 100 73 76 72 77 76 66 60 58 48 48 40 63 35 32 30 69 63 85 80 58 66 74 36 43 60 62 60 61 55 43 30 23 15 8 10 28 22 -9999 -9999 -9999 -9999 -9999 -9999 -9999 -9999 -9999 -9999 -9999 -9999 -9999 -9999 -9999 -9999 -9999 -9999 -9999 -9999 -9999 -9999 -9999 -9999 -9999 -9999 -9999 -9999 -9999 -9999 -9999 -9999 -9999 -9999 -9999 -9999 -9999 -9999 -9999 -9999 -9999 -9999 -9999 -9999 -9999 -9999 -9999 -9999 -9999 -9999 -9999 -9999 -9999 -9999 -9999 -9999 -9999 -9999 -9999 -9999 -9999 -9999 -9999 -9999 -9999 -9999 -9999 -9999 -9999 -9999 -9999 -9999 -9999 -9999 -9999 -9999 -9999 -9999 -9999 -9999 -9999 -9999 -9999 -9999 -9999 -9999 -9999 -9999 -9999 -9999 -9999 -9999 -9999 -9999 -9999 -9999 -9999 -9999 -9999 -9999 -9999 -9999 -9999 -9999 -9999 -9999 -9999 -9999 -9999 -9999 -9999 -9999 -9999 -9999 -9999 -9999 -9999 -9999 -9999 -9999 -9999 -9999 -9999 -9999 -9999 -9999 -9999 -9999 -9999 -9999 -9999 -9999 -9999 -9999 -9999 -9999 -9999 -9999 -9999 119 76 19 43 72 76 104 131 150 152 141 150 160 146 142 152 151 156 165 165 165 162 161 169 170 171 167 164 152 138 141 129 131 150 163 234 301 305 298 290 299 307 305 305 305 295 271 180 218 304 313 311 311 307 302 279 270 260 254 262 296 322 333 329 322 305 306 314 301 142 154 202 313 245 239 268 285 297 304 297 147 76 76 90 80 79 91 113 72 73 76 76 82 136 156 143 137 134 88 78 76 76 76 76 74 74 82 83 73 72 79 76 74 132 114 92 96 104 117 175 299 100 69 69 69 69 70 70 71 71 70 69 69 69 69 69 69 69 69 69 69 69 69 69 70 69 69 73 71 71 98 109 78 82 76 74 75 78 81 88 118 133 147 152 155 155 154 152 151 143 137 120 131 144 152 152 152 152 152 152 147 132 125 120 115 109 106 101 97 93 87 82 78 75 76 79 78 77 80 67 67 73 77 76 77 79 79 78 77 75 66 60 54 56 58 60 62 66 67 63 58 53 50 51 53 54 57 61 62 61 59 57 54 51 48 48 48 48 49 51 52 53 56 59 58 55 60 67 71 71 70 74 76 76 77 77 77 77 77 77 76 76
-9999 -9999 -9999 -9999 -9999 -9999 -9999 -9999 -9999 -9999 -9999 -9999 -9999 -9999 -9999 -9999 -9999 -9999 -9999 -9999 -9999 -9999 -9999 -9999 -9999 -9999 -9999 -9999 -9999 -9999 -9999 -9999 -9999 -9999 -9999 -9999 -9999 -9999 1 1 2 9 26 41 42 28 12 13 13 18 24 32 42 59 76 111 92 84 80 76 94 153 176 177 167 159 143 145 146 153 152 152 152 152 146 143 136 133 128 122 119 117 114 112 137 152 147 160 186 269 226 213 217 237 239 204 214 215 192 170 157 130 97 122 152 165 216 235 223 192 220 296 297 262 226 193 172 169 151 97 76 68 67 63 62 57 54 72 75 74 74 74 71 67 62 58 51 48 22 20 34 64 78 76 71 82 76 80 65 55 41 16 1 1 -9999 -9999 5 -9999 -9999 -9999 -9999 -9999 -9999 -9999 -9999 -9999 -9999 -9999 -9999 -9999 -9999 -9999 -9999 -9999 -9999 -9999 -9999 -9999 -9999 -9999 -9999 -9999 -9999 -9999 -9999 -9999 -9999 -9999 -9999 -9999 -9999 -9999 -9999 -9999 -9999 -9999 -9999 -9999 -9999 -9999 -9999 -9999 -9999 -9999 -9999 -9999 -9999 -9999 -9999 -9999 -9999 -9999 -9999 -9999 -9999 -9999 -9999 -9999 -9999 -9999 -9999 -9999 -9999 -9999 -9999 -9999 -9999 -9999 -9999 -9999 -9999 -9999 -9999 -9999 -9999 -9999 -9999 -9999 -9999 -9999 -9999 -9999 -9999 -9999 -9999 -9999 -9999 -9999 -9999 -9999 -9999 -9999 -9999 -9999 -9999 -9999 -9999 -9999 -9999 -9999 -9999 -9999 -9999 -9999 -9999 -9999 -9999 -9999 -9999 -9999 -9999 -9999 -9999 -9999 -9999 -9999 -9999 -9999 -9999 -9999 -9999 -9999 -9999 -9999 -9999 -9999 -9999 -9999 -9999 -9999 -9999 -9999 -9999 -9999 -9999 -9999 -9999 87 153 126 58 63 66 76 77 126 149 129 140 160 136 126 146 156 158 159 155 152 152 151 158 162 169 156 151 125 121 135 158 178 211 214 302 301 285 258 250 264 288 305 305 310 312 242 152 208 305 301 313 314 305 303 284 274 275 302 339 395 383 374 341 322 306 309 317 304 200 139 158 222 223 286 314 314 294 239 185 76 76 82 148 149 159 181 177 145 72 72 72 71 93 118 104 95 92 79 76 78 77 75 74 73 72 143 158 123 85 71 72 71 79 71 76 98 120 126 153 195 88 69 69 69 69 70 70 71 71 70 69 69 69 72 73 69 69 69 69 69 69 69 69 69 69 69 76 76 92 153 161 148 121 96 76 75 76 97 112 133 144 151 153 154 153 154 152 142 131 119 116 125 135 144 152 152 152 152 153 148 136 126 121 116 110 106 101 98 94 88 84 79 78 76 76 76 77 76 70 69 68 72 76 76 78 79 78 77 77 69 63 62 64 66 70 71 75 76 70 64 59 54 53 56 58 60 61 61 61 60 59 54 50 48 48 49 54 54 56 58 60 63 67 70 59 64 74 77 78 76 76 76 76 76 77 77 77 76 76 76 74
-9999 -9999 -9999 -9999 -9999 -9999 -9999 -9999 -9999 -9999 -9999 -9999 -9999 -9999 -9999 -9999 -9999 -9999 -9999 -9999 -9999 -9999 -9999 -9999 -9999 -9999 -9999 -9999 -9999 -9999 -9999 -9999 -9999 -9999 -9999 -9999 6 15 53 114 134 11 75 100 82 66 48 45 39 26 29 39 42 39 58 58 58 58 68 70 75 98 137 154 157 155 132 124 129 152 152 164 169 175 187 179 161 155 151 175 169 136 153 182 187 181 202 221 239 264 307 304 283 269 306 304 305 291 258 205 171 155 153 143 149 160 244 277 237 190 171 155 152 151 149 139 119 95 74 76 76 76 72 76 94 91 67 76 73 82 99 120 134 127 147 152 147 122 109 77 16 66 78 75 76 100 151 165 156 144 117 62 39 13 -9999 -9999 -9999 -9999 -9999 -9999 -9999 -9999 -9999 -9999 -9999 -9999 -9999 -9999 -9999 -9999 -9999 -9999 -9999 -9999 -9999 -9999 -9999 -9999 -9999 -9999 -9999 -9999 -9999 -9999 -9999 -9999 -9999 -9999 -9999 -9999 -9999 -9999 -9999 -9999 -9999 -9999 -9999 -9999 -9999 -9999 -9999 -9999 -9999 -9999 -9999 -9999 -9999 -9999 -9999 -9999 -9999 -9999 -9999 -9999 -9999 -9999 -9999 -9999 -9999 -9999 -9999 -9999 -9999 -9999 -9999 -9999 -9999 -9999 -9999 -9999 -9999 -9999 -9999 -9999 -9999 -9999 -9999 -9999 -9999 -9999 -9999 -9999 -9999 -9999 -9999 -9999 -9999 -9999 -9999 -9999 -9999 -9999 -9999 -9999 -9999 -9999 -9999 -9999 -9999 -9999 -9999 -9999 -9999 -9999 -9999 -9999 -9999 -9999 -9999 -9999 -9999 -9999 -9999 -9999 -9999 -9999 -9999 -9999 -9999 -9999 -9999 -9999 -9999 -9999 -9999 -9999 -9999 -9999 -9999 -9999 -9999 -9999 -9999 -9999 -9999 67 76 76 136 152 85 56 56 58 59 73 76 76 83 82 91 110 140 150 156 148 159 158 139 146 132 153 157 110 113 136 160 206 274 298 284 300 295 262 225 183 160 207 255 303 313 303 283 226 135 153 186 188 192 210 281 293 294 297 310 364 429 419 393 366 327 311 305 309 316 313 303 257 203 134 157 195 229 215 170 118 120 127 152 203 292 337 312 299 244 150 152 139 104 79 76 76 76 75 74 76 74 73 71 71 72 72 71 71 71 76 76 74 73 73 76 71 77 143 153 146 152 150 78 69 69 69 69 69 70 70 70 70 70 77 118 203 176 113 69 70 70 69 69 69 71 69 77 87 136 152 152 152 153 152 135 109 80 75 85 123 145 149 152 153 153 153 152 152 137 124 120 108 106 111 119 129 149 152 152 151 152 143 129 120 116 112 106 103 98 94 90 85 82 79 78 74 74 76 72 76 78 75 69 70 74 75 78 77 76 74 73 70 71 73 74 75 77 78 76 76 73 67 62 56 56 59 62 63 63 66 68 68 65 57 52 52 53 57 72 69 66 70 73 76 76 76 73 70 76 78 77 77 77 76 76 76 76 76 76 76 76 76 73
-9999 -9999 -9999 -9999 72 -9999 -9999 -9999 -9999 -9999 -9999 -9999 -9999 -9999 -9999 -9999 -9999 -9999 -9999 -9999 -9999 -9999 -9999 -9999 -9999 -9999 -9999 -9999 -9999 -9999 -9999 -9999 -9999 -9999 64 72 65 111 295 272 75 92 139 152 95 100 134 123 115 74 73 96 87 90 58 58 58 58 58 62 64 73 92 114 127 131 118 120 130 162 191 222 229 242 340 340 327 269 249 296 251 152 190 257 242 248 284 286 301 321 304 304 299 291 304 308 304 291 267 224 195 165 153 147 150 165 239 286 204 178 166 156 153 144 129 123 106 99 96 107 105 95 103 115 138 148 111 122 116 115 125 145 156 152 159 160 163 156 127 88 46 15 70 77 76 120 152 172 179 162 143 148 144 119 73 73 6 -9999 -9999 -9999 -9999 -9999 -9999 -9999 -9999 -9999 -9999 -9999 -9999 -9999 -9999 -9999 -9999 -9999 -9999 -9999 -9999 -9999 -9999 -9999 -9999 -9999 -9999 -9999 -9999 -9999 -9999 -9999 -9999 -9999 -9999 -9999 -9999 -9999 -9999 -9999 -9999 -9999 -9999 -9999 -9999 -9999 -9999 -9999 -9999 -9999 -9999 -9999 -9999 -9999 -9999 -9999 -9999 -9999 -9999 -9999 -9999 -9999 -9999 -9999 -9999 -9999 -9999 -9999 -9999 -9999 -9999 -9999 -9999 -9999 -9999 -9999 -9999 -9999 -9999 -9999 -9999 -9999 -9999 -9999 -9999 -9999 -9999 -9999 -9999 -9999 -9999 -9999 -9999 -9999 -9999 -9999 -9999 -9999 -9999 -9999 -9999 -9999 -9999 -9999 -9999 -9999 -9999 -9999 -9999 -9999 -9999 -9999 -9999 -9999 -9999 -9999 -9999 -9999 -9999 -9999 -9999 -9999 -9999 -9999 -9999 -9999 -9999 -9999 -9999 -9999 -9999 -9999 -9999 -9999 -9999 -9999 -9999 78 76 79 76 74 125 145 84 87 80 77 77 60 61 62 64 65 75 67 67 79 86 102 146 135 92 95 117 128 105 124 140 197 248 300 305 305 305 272 254 219 190 160 151 178 236 281 291 248 164 139 127 157 157 152 154 193 254 286 303 305 310 335 348 350 346 334 305 306 302 305 316 318 310 304 306 271 149 138 151 147 123 120 135 202 266 317 366 442 397 352 300 181 146 157 153 144 113 108 91 88 78 76 76 71 71 71 75 73 71 76 77 76 76 76 76 76 76 78 81 132 147 147 157 135 69 69 69 69 70 69 69 70 70 69 69 76 128 154 177 145 72 71 70 69 69 69 76 86 140 170 172 161 150 146 143 133 117 100 76 76 100 137 155 152 152 153 153 152 153 144 121 119 115 107 102 103 112 125 152 153 149 145 142 120 114 111 109 106 101 98 93 90 85 81 79 76 73 74 76 75 76 77 79 76 69 69 70 72 76 76 76 74 74 76 75 76 77 77 78 78 70 68 66 62 58 57 57 60 62 64 65 69 74 74 72 67 63 77 77 77 79 74 73 76 82 92 91 81 76 78 69 77 76 77 77 76 76 76 76 76 76 76 76 76 76
-9999 -9999 -9999 -9999 -9999 -9999 -9999 -9999 -9999 -9999 -9999 -9999 -9999 -9999 -9999 -9999 -9999 -9999 -9999 -9999 -9999 -9999 -9999 -9999 -9999 -9999 -9999 102 149 94 163 243 420 340 150 103 154 340 188 72 51 88 113 188 230 269 492 408 363 293 340 439 303 340 464 345 58 58 58 72 62 95 79 76 126 131 99 148 206 322 426 421 340 423 441 555 421 343 329 304 299 212 248 298 306 426 439 338 345 369 309 312 312 304 304 304 280 257 233 214 203 176 157 146 147 149 161 157 152 152 152 156 155 152 156 156 152 155 152 161 152 152 152 152 152 158 158 160 151 151 152 153 153 153 152 150 158 152 132 91 76 58 71 75 78 142 127 138 134 114 149 157 154 153 89 2 -9999 -9999 -9999 -9999 -9999 -9999 -9999 -9999 -9999 -9999 -9999 -9999 -9999 -9999 -9999 -9999 -9999 -9999 -9999 -9999 -9999 -9999 -9999 -9999 -9999 -9999 -9999 -9999 -9999 -9999 -9999 -9999 -9999 -9999 -9999 -9999 -9999 -9999 -9999 -9999 -9999 -9999 -9999 -9999 -9999 -9999 -9999 -9999 -9999 -9999 -9999 -9999 -9999 -9999 -9999 -9999 -9999 -9999 -9999 -9999 -9999 -9999 -9999 -9999 -9999 -9999 -9999 -9999 -9999 -9999 -9999 -9999 -9999 -9999 -9999 -9999 -9999 -9999 -9999 -9999 -9999 -9999 -9999 -9999 -9999 -9999 -9999 -9999 -9999 -9999 -9999 -9999 -9999 -9999 -9999 -9999 -9999 -9999 -9999 -9999 -9999 -9999 -9999 -9999 -9999 -9999 -9999 -9999 -9999 -9999 -9999 -9999 -9999 -9999 -9999 -9999 -9999 -9999 -9999 -9999 -9999 -9999 -9999 -9999 56 73 74 59 50 -9999 -9999 -9999 -9999 43 20 27 38 51 58 69 71 83 136 158 154 160 164 144 130 111 91 77 144 162 144 147 150 105 85 111 97 131 158 152 122 135 173 229 271 318 313 305 306 303 295 238 198 154 151 140 146 166 209 236 211 166 152 109 149 142 136 152 168 271 305 305 306 305 305 305 305 306 313 313 283 296 283 284 304 312 306 308 291 244 164 152 150 133 142 162 206 351 415 491 576 458 342 317 316 221 155 133 151 149 152 149 130 108 89 84 90 78 71 77 73 72 72 78 78 77 76 76 76 76 75 74 71 71 86 95 103 70 69 69 69 69 69 69 69 69 69 69 69 69 69 76 73 73 74 76 71 69 69 86 139 158 254 245 211 183 160 145 136 120 113 103 95 90 112 132 151 153 152 152 152 152 154 152 142 129 117 103 97 92 99 113 133 139 135 127 115 105 104 101 99 97 93 90 86 83 80 76 74 76 78 78 78 77 74 75 77 77 72 69 69 77 80 83 91 90 86 79 77 76 75 73 70 67 63 62 60 59 59 59 59 63 65 69 73 73 76 76 82 102 141 152 152 146 133 104 88 92 102 122 123 102 87 79 72 73 76 76 77 77 76 76 75 75 76 76 76 77 78
-9999 -9999 -9999 -9999 -9999 -9999 -9999 -9999 -9999 -9999 -9999 -9999 -9999 -9999 -9999 -9999 -9999 -9999 -9999 -9999 -9999 -9999 -9999 -9999 -9999 269 430 435 497 127 158 286 518 340 286 170 265 460 188 73 63 77 114 188 316 437 1002 565 492 627 618 497 340 439 421 416 87 88 115 137 188 201 173 117 158 292 248 134 188 297 431 258 275 347 316 328 339 373 420 303 304 258 268 304 308 340 355 293 275 268 292 304 303 284 277 266 242 221 196 170 168 168 152 151 153 149 150 151 152 147 139 152 154 151 156 156 154 155 162 168 159 152 147 141 144 152 158 155 154 143 155 152 153 151 157 136 151 152 128 70 25 28 20 39 58 75 75 80 97 131 151 152 142 113 71 -9999 -9999 -9999 -9999 -9999 -9999 -9999 -9999 -9999 -9999 -9999 -9999 -9999 -9999 -9999 -9999 -9999 -9999 -9999 -9999 -9999 -9999 -9999 -9999 -9999 -9999 -9999 -9999 -9999 -9999 -9999 -9999 -9999 -9999 -9999 -9999 -9999 -9999 -9999 -9999 -9999 -9999 -9999 -9999 -9999 -9999 -9999 -9999 -9999 -9999 -9999 -9999 -9999 -9999 -9999 -9999 -9999 -9999 -9999 -9999 -9999 -9999 -9999 -9999 -9999 -9999 -9999 -9999 -9999 -9999 -9999 -9999 -9999 -9999 -9999 -9999 -9999 -9999 -9999 -9999 -9999 -9999 -9999 -9999 -9999 -9999 -9999 -9999 -9999 -9999 -9999 -9999 -9999 -9999 -9999 -9999 -9999 -9999 -9999 -9999 -9999 -9999 -9999 -9999 -9999 -9999 -9999 -9999 -9999 -9999 -9999 -9999 -9999 -9999 -9999 -9999 -9999 -9999 -9999 -9999 -9999 -9999 -9999 -9999 -9999 -9999 93 118 143 79 24 -9999 45 84 138 143 142 142 141 94 112 129 91 128 140 150 159 165 152 150 152 151 134 140 159 170 168 172 163 154 160 157 152 160 148 140 153 194 280 333 308 278 262 287 235 186 179 165 152 134 136 149 164 189 203 180 153 153 103 115 114 128 152 155 235 303 305 308 306 305 305 305 302 310 314 267 277 303 260 275 305 305 284 239 179 150 152 141 144 169 271 339 491 568 582 581 482 332 298 293 223 174 152 123 129 144 152 140 110 91 96 115 145 127 127 108 89 74 73 76 77 77 76 76 76 74 73 70 72 76 69 71 69 69 69 69 70 70 69 69 69 69 69 69 70 71 73 74 74 76 78 73 70 77 148 188 221 294 274 222 190 166 154 152 133 126 120 112 117 135 147 154 152 153 153 152 152 152 152 140 129 117 102 94 87 92 100 115 122 123 118 111 105 103 99 97 93 88 85 81 78 76 76 77 79 79 80 80 79 77 76 77 76 74 78 119 132 113 112 117 110 99 83 77 76 75 76 72 66 62 61 59 59 60 61 62 69 70 74 76 76 79 83 95 125 148 152 152 154 152 130 107 106 114 135 137 112 93 80 74 75 76 76 77 77 77 76 75 75 76 76 77 77 78
